VERSION 0.7
FIELDS x y z intensity returnnumber numberofreturns scandirectionflag edgeofflightline classification synthetic keypoint withheld overlap scananglerank userdata pointsourceid gpstime scanchannel
SIZE 4 4 4 8 8 8 8 8 8 8 8 8 8 8 8 8 8 8
TYPE F F F F F F F F F F F F F F F F F F
COUNT 1 1 1 1 1 1 1 1 1 1 1 1 1 1 1 1 1 1
WIDTH 408
HEIGHT 1
VIEWPOINT 0.0 0.0 0.0 1.0 0.0 0.0 0.0
POINTS 408
DATA ascii
180120.42 474728.31 36.01 697.00 4.00 6.00 1.00 0.00 1.00 0.00 0.00 0.00 0.00 -9.01 1.00 1220.00 360422709.03 0.00 
180118.73 474731.72 25.50 324.00 5.00 6.00 1.00 0.00 1.00 0.00 0.00 0.00 0.00 -9.01 1.00 1220.00 360422709.03 0.00 
180118.58 474732.09 24.47 576.00 6.00 6.00 1.00 0.00 2.00 0.00 0.00 0.00 0.00 -9.01 1.00 1220.00 360422709.03 0.00 
180122.53 474723.38 51.00 890.00 1.00 6.00 1.00 0.00 1.00 0.00 0.00 0.00 0.00 -9.02 1.00 1220.00 360422709.03 0.00 
180121.94 474724.56 47.25 418.00 2.00 6.00 1.00 0.00 1.00 0.00 0.00 0.00 0.00 -9.02 1.00 1220.00 360422709.03 0.00 
180120.47 474727.47 38.28 425.00 3.00 6.00 1.00 0.00 1.00 0.00 0.00 0.00 0.00 -9.02 1.00 1220.00 360422709.03 0.00 
180120.34 474727.75 37.37 587.00 4.00 6.00 1.00 0.00 1.00 0.00 0.00 0.00 0.00 -9.02 1.00 1220.00 360422709.03 0.00 
180120.14 474728.25 35.92 1095.00 5.00 6.00 1.00 0.00 1.00 0.00 0.00 0.00 0.00 -9.02 1.00 1220.00 360422709.03 0.00 
180118.30 474731.94 24.47 753.00 6.00 6.00 1.00 0.00 2.00 0.00 0.00 0.00 0.00 -9.02 1.00 1220.00 360422709.03 0.00 
180122.27 474723.16 51.26 521.00 1.00 7.00 1.00 0.00 1.00 0.00 0.00 0.00 0.00 -9.02 1.00 1220.00 360422709.03 0.00 
180122.16 474723.44 50.14 361.00 2.00 7.00 1.00 0.00 1.00 0.00 0.00 0.00 0.00 -9.02 1.00 1220.00 360422709.03 0.00 
180121.67 474724.38 47.33 438.00 3.00 7.00 1.00 0.00 1.00 0.00 0.00 0.00 0.00 -9.02 1.00 1220.00 360422709.03 0.00 
180120.53 474726.72 40.16 471.00 4.00 7.00 1.00 0.00 1.00 0.00 0.00 0.00 0.00 -9.02 1.00 1220.00 360422709.03 0.00 
180120.27 474727.34 38.25 611.00 5.00 7.00 1.00 0.00 1.00 0.00 0.00 0.00 0.00 -9.02 1.00 1220.00 360422709.03 0.00 
180119.89 474728.06 36.03 1330.00 6.00 7.00 1.00 0.00 1.00 0.00 0.00 0.00 0.00 -9.02 1.00 1220.00 360422709.03 0.00 
180118.03 474731.81 24.47 901.00 7.00 7.00 1.00 0.00 2.00 0.00 0.00 0.00 0.00 -9.02 1.00 1220.00 360422709.03 0.00 
180121.89 474723.31 50.13 320.00 1.00 5.00 1.00 0.00 1.00 0.00 0.00 0.00 0.00 -9.05 1.00 1220.00 360422709.03 0.00 
180120.19 474726.78 39.57 716.00 2.00 5.00 1.00 0.00 1.00 0.00 0.00 0.00 0.00 -9.05 1.00 1220.00 360422709.03 0.00 
180120.03 474727.06 38.70 586.00 3.00 5.00 1.00 0.00 1.00 0.00 0.00 0.00 0.00 -9.05 1.00 1220.00 360422709.03 0.00 
180119.64 474727.91 36.15 1495.00 4.00 5.00 1.00 0.00 1.00 0.00 0.00 0.00 0.00 -9.05 1.00 1220.00 360422709.03 0.00 
180117.77 474731.72 24.45 1122.00 5.00 5.00 1.00 0.00 2.00 0.00 0.00 0.00 0.00 -9.05 1.00 1220.00 360422709.03 0.00 
180121.66 474723.19 50.15 830.00 1.00 5.00 1.00 0.00 1.00 0.00 0.00 0.00 0.00 -9.06 1.00 1220.00 360422709.03 0.00 
180121.17 474724.12 47.37 591.00 2.00 5.00 1.00 0.00 1.00 0.00 0.00 0.00 0.00 -9.06 1.00 1220.00 360422709.03 0.00 
180119.80 474726.94 38.74 721.00 3.00 5.00 1.00 0.00 1.00 0.00 0.00 0.00 0.00 -9.06 1.00 1220.00 360422709.03 0.00 
180119.41 474727.75 36.24 1442.00 4.00 5.00 1.00 0.00 1.00 0.00 0.00 0.00 0.00 -9.06 1.00 1220.00 360422709.03 0.00 
180117.50 474731.59 24.43 1071.00 5.00 5.00 1.00 0.00 2.00 0.00 0.00 0.00 0.00 -9.06 1.00 1220.00 360422709.03 0.00 
180121.39 474723.06 50.21 482.00 1.00 5.00 1.00 0.00 1.00 0.00 0.00 0.00 0.00 -9.08 1.00 1220.00 360422709.03 0.00 
180120.91 474724.06 47.23 328.00 2.00 5.00 1.00 0.00 1.00 0.00 0.00 0.00 0.00 -9.08 1.00 1220.00 360422709.03 0.00 
180119.53 474726.84 38.67 383.00 3.00 5.00 1.00 0.00 1.00 0.00 0.00 0.00 0.00 -9.08 1.00 1220.00 360422709.03 0.00 
180119.17 474727.59 36.37 1053.00 4.00 5.00 1.00 0.00 1.00 0.00 0.00 0.00 0.00 -9.08 1.00 1220.00 360422709.03 0.00 
180117.25 474731.47 24.40 1804.00 5.00 5.00 1.00 0.00 2.00 0.00 0.00 0.00 0.00 -9.08 1.00 1220.00 360422709.03 0.00 
180120.64 474723.97 47.13 299.00 1.00 3.00 1.00 0.00 1.00 0.00 0.00 0.00 0.00 -9.08 1.00 1220.00 360422709.03 0.00 
180118.92 474727.44 36.46 1045.00 2.00 3.00 1.00 0.00 1.00 0.00 0.00 0.00 0.00 -9.08 1.00 1220.00 360422709.03 0.00 
180117.00 474731.38 24.37 2038.00 3.00 3.00 1.00 0.00 2.00 0.00 0.00 0.00 0.00 -9.08 1.00 1220.00 360422709.03 0.00 
180120.05 474724.50 45.14 335.00 1.00 3.00 1.00 0.00 1.00 0.00 0.00 0.00 0.00 -9.09 1.00 1220.00 360422709.03 0.00 
180118.66 474727.31 36.38 725.00 2.00 3.00 1.00 0.00 1.00 0.00 0.00 0.00 0.00 -9.09 1.00 1220.00 360422709.03 0.00 
180116.73 474731.25 24.36 2456.00 3.00 3.00 1.00 0.00 2.00 0.00 0.00 0.00 0.00 -9.09 1.00 1220.00 360422709.03 0.00 
180119.81 474724.31 45.16 631.00 1.00 3.00 1.00 0.00 1.00 0.00 0.00 0.00 0.00 -9.10 1.00 1220.00 360422709.03 0.00 
180118.39 474727.19 36.29 1245.00 2.00 3.00 1.00 0.00 1.00 0.00 0.00 0.00 0.00 -9.10 1.00 1220.00 360422709.03 0.00 
180116.47 474731.09 24.36 2163.00 3.00 3.00 1.00 0.00 2.00 0.00 0.00 0.00 0.00 -9.10 1.00 1220.00 360422709.03 0.00 
180118.12 474727.06 36.38 1488.00 1.00 2.00 1.00 0.00 1.00 0.00 0.00 0.00 0.00 -9.11 1.00 1220.00 360422709.03 0.00 
180116.19 474730.97 24.36 1911.00 2.00 2.00 1.00 0.00 2.00 0.00 0.00 0.00 0.00 -9.11 1.00 1220.00 360422709.03 0.00 
180119.31 474723.97 45.45 423.00 1.00 3.00 1.00 0.00 1.00 0.00 0.00 0.00 0.00 -9.13 1.00 1220.00 360422709.03 0.00 
180117.89 474726.88 36.63 390.00 2.00 3.00 1.00 0.00 1.00 0.00 0.00 0.00 0.00 -9.13 1.00 1220.00 360422709.03 0.00 
180115.92 474730.81 24.38 3503.00 3.00 3.00 1.00 0.00 2.00 0.00 0.00 0.00 0.00 -9.13 1.00 1220.00 360422709.03 0.00 
180119.05 474723.78 45.67 658.00 1.00 3.00 1.00 0.00 1.00 0.00 0.00 0.00 0.00 -9.14 1.00 1220.00 360422709.03 0.00 
180117.61 474726.75 36.56 407.00 2.00 3.00 1.00 0.00 1.00 0.00 0.00 0.00 0.00 -9.14 1.00 1220.00 360422709.03 0.00 
180115.66 474730.72 24.38 3011.00 3.00 3.00 1.00 0.00 2.00 0.00 0.00 0.00 0.00 -9.14 1.00 1220.00 360422709.03 0.00 
180118.86 474723.75 45.53 394.00 1.00 3.00 1.00 0.00 1.00 0.00 0.00 0.00 0.00 -9.16 1.00 1220.00 360422709.03 0.00 
180117.34 474726.75 36.18 851.00 2.00 3.00 1.00 0.00 1.00 0.00 0.00 0.00 0.00 -9.16 1.00 1220.00 360422709.03 0.00 
180115.41 474730.56 24.39 2200.00 3.00 3.00 1.00 0.00 2.00 0.00 0.00 0.00 0.00 -9.16 1.00 1220.00 360422709.03 0.00 
180117.06 474726.66 36.06 863.00 1.00 2.00 1.00 0.00 1.00 0.00 0.00 0.00 0.00 -9.16 1.00 1220.00 360422709.03 0.00 
180115.17 474730.44 24.41 2412.00 2.00 2.00 1.00 0.00 2.00 0.00 0.00 0.00 0.00 -9.16 1.00 1220.00 360422709.03 0.00 
180116.84 474726.53 36.08 318.00 1.00 2.00 1.00 0.00 1.00 0.00 0.00 0.00 0.00 -9.17 1.00 1220.00 360422709.03 0.00 
180114.91 474730.31 24.41 3567.00 2.00 2.00 1.00 0.00 2.00 0.00 0.00 0.00 0.00 -9.17 1.00 1220.00 360422709.03 0.00 
180116.73 474725.97 37.35 371.00 1.00 3.00 1.00 0.00 1.00 0.00 0.00 0.00 0.00 -9.17 1.00 1220.00 360422709.03 0.00 
180116.56 474726.47 35.92 439.00 2.00 3.00 1.00 0.00 1.00 0.00 0.00 0.00 0.00 -9.17 1.00 1220.00 360422709.03 0.00 
180114.64 474730.19 24.41 3467.00 3.00 3.00 1.00 0.00 2.00 0.00 0.00 0.00 0.00 -9.17 1.00 1220.00 360422709.03 0.00 
180116.19 474726.47 35.42 372.00 1.00 3.00 1.00 0.00 1.00 0.00 0.00 0.00 0.00 -9.19 1.00 1220.00 360422709.03 0.00 
180116.06 474726.75 34.52 460.00 2.00 3.00 1.00 0.00 1.00 0.00 0.00 0.00 0.00 -9.19 1.00 1220.00 360422709.03 0.00 
180114.38 474730.03 24.43 3371.00 3.00 3.00 1.00 0.00 2.00 0.00 0.00 0.00 0.00 -9.19 1.00 1220.00 360422709.03 0.00 
180116.31 474725.56 37.77 307.00 1.00 3.00 1.00 0.00 1.00 0.00 0.00 0.00 0.00 -9.21 1.00 1220.00 360422709.03 0.00 
180115.91 474726.38 35.27 299.00 2.00 3.00 1.00 0.00 1.00 0.00 0.00 0.00 0.00 -9.21 1.00 1220.00 360422709.03 0.00 
180114.11 474729.91 24.45 3680.00 3.00 3.00 1.00 0.00 2.00 0.00 0.00 0.00 0.00 -9.21 1.00 1220.00 360422709.03 0.00 
180113.84 474729.78 24.45 4285.00 1.00 1.00 1.00 0.00 2.00 0.00 0.00 0.00 0.00 -9.22 1.00 1220.00 360422709.03 0.00 
180116.50 474723.72 42.58 608.00 1.00 2.00 1.00 0.00 1.00 0.00 0.00 0.00 0.00 -9.22 1.00 1220.00 360422709.03 0.00 
180113.58 474729.62 24.47 3454.00 2.00 2.00 1.00 0.00 2.00 0.00 0.00 0.00 0.00 -9.22 1.00 1220.00 360422709.03 0.00 
180116.28 474723.53 42.84 358.00 1.00 3.00 1.00 0.00 1.00 0.00 0.00 0.00 0.00 -9.23 1.00 1220.00 360422709.03 0.00 
180116.28 474723.66 42.50 295.00 2.00 3.00 1.00 0.00 1.00 0.00 0.00 0.00 0.00 -9.23 1.00 1220.00 360422709.03 0.00 
180113.33 474729.50 24.46 4246.00 3.00 3.00 1.00 0.00 2.00 0.00 0.00 0.00 0.00 -9.23 1.00 1220.00 360422709.03 0.00 
180116.06 474723.56 42.48 297.00 1.00 2.00 1.00 0.00 1.00 0.00 0.00 0.00 0.00 -9.25 1.00 1220.00 360422709.03 0.00 
180113.08 474729.38 24.45 3836.00 2.00 2.00 1.00 0.00 2.00 0.00 0.00 0.00 0.00 -9.25 1.00 1220.00 360422709.03 0.00 
180115.67 474723.56 42.03 268.00 1.00 2.00 1.00 0.00 1.00 0.00 0.00 0.00 0.00 -9.26 1.00 1220.00 360422709.03 0.00 
180112.83 474729.25 24.49 4142.00 2.00 2.00 1.00 0.00 2.00 0.00 0.00 0.00 0.00 -9.26 1.00 1220.00 360422709.03 0.00 
180115.34 474723.56 41.57 545.00 1.00 2.00 1.00 0.00 1.00 0.00 0.00 0.00 0.00 -9.27 1.00 1220.00 360422709.03 0.00 
180112.56 474729.12 24.49 3936.00 2.00 2.00 1.00 0.00 2.00 0.00 0.00 0.00 0.00 -9.27 1.00 1220.00 360422709.03 0.00 
180115.06 474723.56 41.35 434.00 1.00 2.00 1.00 0.00 1.00 0.00 0.00 0.00 0.00 -9.28 1.00 1220.00 360422709.03 0.00 
180112.30 474728.97 24.48 3669.00 2.00 2.00 1.00 0.00 2.00 0.00 0.00 0.00 0.00 -9.28 1.00 1220.00 360422709.03 0.00 
180114.52 474723.88 39.80 584.00 1.00 2.00 1.00 0.00 1.00 0.00 0.00 0.00 0.00 -9.29 1.00 1220.00 360422709.03 0.00 
180112.02 474728.84 24.49 3734.00 2.00 2.00 1.00 0.00 2.00 0.00 0.00 0.00 0.00 -9.29 1.00 1220.00 360422709.03 0.00 
180111.75 474728.69 24.49 4071.00 1.00 1.00 1.00 0.00 2.00 0.00 0.00 0.00 0.00 -9.30 1.00 1220.00 360422709.03 0.00 
180111.48 474728.56 24.47 4281.00 1.00 1.00 1.00 0.00 2.00 0.00 0.00 0.00 0.00 -9.31 1.00 1220.00 360422709.03 0.00 
180111.23 474728.44 24.49 4583.00 1.00 1.00 1.00 0.00 2.00 0.00 0.00 0.00 0.00 -9.31 1.00 1220.00 360422709.03 0.00 
180110.98 474728.31 24.49 4323.00 1.00 1.00 1.00 0.00 2.00 0.00 0.00 0.00 0.00 -9.34 1.00 1220.00 360422709.03 0.00 
180110.73 474728.19 24.48 4442.00 1.00 1.00 1.00 0.00 2.00 0.00 0.00 0.00 0.00 -9.34 1.00 1220.00 360422709.03 0.00 
180110.47 474728.06 24.48 4250.00 1.00 1.00 1.00 0.00 2.00 0.00 0.00 0.00 0.00 -9.35 1.00 1220.00 360422709.03 0.00 
180110.20 474727.91 24.49 4424.00 1.00 1.00 1.00 0.00 2.00 0.00 0.00 0.00 0.00 -9.37 1.00 1220.00 360422709.03 0.00 
180109.92 474727.78 24.48 4316.00 1.00 1.00 1.00 0.00 2.00 0.00 0.00 0.00 0.00 -9.38 1.00 1220.00 360422709.03 0.00 
180109.66 474727.66 24.46 4230.00 1.00 1.00 1.00 0.00 2.00 0.00 0.00 0.00 0.00 -9.39 1.00 1220.00 360422709.03 0.00 
180109.41 474727.50 24.49 4220.00 1.00 1.00 1.00 0.00 2.00 0.00 0.00 0.00 0.00 -9.40 1.00 1220.00 360422709.03 0.00 
180133.50 474739.47 24.58 3025.00 1.00 1.00 1.00 0.00 2.00 0.00 0.00 0.00 0.00 -8.39 1.00 1220.00 360422709.04 0.00 
180135.19 474734.91 37.93 359.00 1.00 2.00 1.00 0.00 1.00 0.00 0.00 0.00 0.00 -8.41 1.00 1220.00 360422709.04 0.00 
180133.25 474739.34 24.59 3141.00 2.00 2.00 1.00 0.00 2.00 0.00 0.00 0.00 0.00 -8.41 1.00 1220.00 360422709.04 0.00 
180134.94 474734.84 37.89 317.00 1.00 2.00 1.00 0.00 1.00 0.00 0.00 0.00 0.00 -8.41 1.00 1220.00 360422709.04 0.00 
180133.12 474738.91 25.56 1508.00 2.00 2.00 1.00 0.00 1.00 0.00 0.00 0.00 0.00 -8.41 1.00 1220.00 360422709.04 0.00 
180135.67 474732.56 44.36 611.00 1.00 3.00 1.00 0.00 1.00 0.00 0.00 0.00 0.00 -8.42 1.00 1220.00 360422709.04 0.00 
180134.69 474734.78 37.71 665.00 2.00 3.00 1.00 0.00 1.00 0.00 0.00 0.00 0.00 -8.42 1.00 1220.00 360422709.04 0.00 
180132.73 474739.12 24.60 2892.00 3.00 3.00 1.00 0.00 2.00 0.00 0.00 0.00 0.00 -8.42 1.00 1220.00 360422709.04 0.00 
180134.42 474734.62 37.73 764.00 1.00 2.00 1.00 0.00 1.00 0.00 0.00 0.00 0.00 -8.44 1.00 1220.00 360422709.04 0.00 
180132.47 474739.00 24.59 2614.00 2.00 2.00 1.00 0.00 2.00 0.00 0.00 0.00 0.00 -8.44 1.00 1220.00 360422709.04 0.00 
180135.50 474731.50 46.91 575.00 1.00 5.00 1.00 0.00 1.00 0.00 0.00 0.00 0.00 -8.45 1.00 1220.00 360422709.04 0.00 
180135.20 474732.12 44.96 531.00 2.00 5.00 1.00 0.00 1.00 0.00 0.00 0.00 0.00 -8.45 1.00 1220.00 360422709.04 0.00 
180135.16 474732.34 44.35 573.00 3.00 5.00 1.00 0.00 1.00 0.00 0.00 0.00 0.00 -8.45 1.00 1220.00 360422709.04 0.00 
180134.14 474734.50 37.76 560.00 4.00 5.00 1.00 0.00 1.00 0.00 0.00 0.00 0.00 -8.45 1.00 1220.00 360422709.04 0.00 
180132.19 474738.88 24.59 2082.00 5.00 5.00 1.00 0.00 2.00 0.00 0.00 0.00 0.00 -8.45 1.00 1220.00 360422709.04 0.00 
180135.25 474731.34 46.91 383.00 1.00 4.00 1.00 0.00 1.00 0.00 0.00 0.00 0.00 -8.46 1.00 1220.00 360422709.04 0.00 
180134.92 474732.06 44.78 594.00 2.00 4.00 1.00 0.00 1.00 0.00 0.00 0.00 0.00 -8.46 1.00 1220.00 360422709.04 0.00 
180133.88 474734.38 37.78 655.00 3.00 4.00 1.00 0.00 1.00 0.00 0.00 0.00 0.00 -8.46 1.00 1220.00 360422709.04 0.00 
180131.92 474738.75 24.59 2107.00 4.00 4.00 1.00 0.00 2.00 0.00 0.00 0.00 0.00 -8.46 1.00 1220.00 360422709.04 0.00 
180134.66 474732.00 44.66 341.00 1.00 6.00 1.00 0.00 1.00 0.00 0.00 0.00 0.00 -8.47 1.00 1220.00 360422709.04 0.00 
180134.00 474733.44 40.31 358.00 2.00 6.00 1.00 0.00 1.00 0.00 0.00 0.00 0.00 -8.47 1.00 1220.00 360422709.04 0.00 
180133.78 474733.84 39.03 395.00 3.00 6.00 1.00 0.00 1.00 0.00 0.00 0.00 0.00 -8.47 1.00 1220.00 360422709.04 0.00 
180133.66 474734.28 37.77 608.00 4.00 6.00 1.00 0.00 1.00 0.00 0.00 0.00 0.00 -8.47 1.00 1220.00 360422709.04 0.00 
180133.05 474735.53 33.93 413.00 5.00 6.00 1.00 0.00 1.00 0.00 0.00 0.00 0.00 -8.47 1.00 1220.00 360422709.04 0.00 
180131.66 474738.62 24.59 2485.00 6.00 6.00 1.00 0.00 2.00 0.00 0.00 0.00 0.00 -8.47 1.00 1220.00 360422709.04 0.00 
180134.39 474731.88 44.66 560.00 1.00 3.00 1.00 0.00 1.00 0.00 0.00 0.00 0.00 -8.47 1.00 1220.00 360422709.04 0.00 
180133.48 474734.00 38.34 604.00 2.00 3.00 1.00 0.00 1.00 0.00 0.00 0.00 0.00 -8.47 1.00 1220.00 360422709.04 0.00 
180131.39 474738.53 24.58 2531.00 3.00 3.00 1.00 0.00 2.00 0.00 0.00 0.00 0.00 -8.47 1.00 1220.00 360422709.04 0.00 
180134.16 474731.75 44.67 555.00 1.00 2.00 1.00 0.00 1.00 0.00 0.00 0.00 0.00 -8.48 1.00 1220.00 360422709.04 0.00 
180131.14 474738.44 24.57 2563.00 2.00 2.00 1.00 0.00 2.00 0.00 0.00 0.00 0.00 -8.48 1.00 1220.00 360422709.04 0.00 
180133.89 474731.66 44.66 556.00 1.00 4.00 1.00 0.00 1.00 0.00 0.00 0.00 0.00 -8.51 1.00 1220.00 360422709.04 0.00 
180133.11 474733.50 39.10 579.00 2.00 4.00 1.00 0.00 1.00 0.00 0.00 0.00 0.00 -8.51 1.00 1220.00 360422709.04 0.00 
180132.94 474733.75 38.25 659.00 3.00 4.00 1.00 0.00 1.00 0.00 0.00 0.00 0.00 -8.51 1.00 1220.00 360422709.04 0.00 
180130.88 474738.28 24.56 2148.00 4.00 4.00 1.00 0.00 2.00 0.00 0.00 0.00 0.00 -8.51 1.00 1220.00 360422709.04 0.00 
180133.86 474730.94 46.41 326.00 1.00 4.00 1.00 0.00 1.00 0.00 0.00 0.00 0.00 -8.52 1.00 1220.00 360422709.04 0.00 
180133.62 474731.56 44.65 648.00 2.00 4.00 1.00 0.00 1.00 0.00 0.00 0.00 0.00 -8.52 1.00 1220.00 360422709.04 0.00 
180132.66 474733.66 38.18 752.00 3.00 4.00 1.00 0.00 1.00 0.00 0.00 0.00 0.00 -8.52 1.00 1220.00 360422709.04 0.00 
180130.61 474738.19 24.55 2346.00 4.00 4.00 1.00 0.00 2.00 0.00 0.00 0.00 0.00 -8.52 1.00 1220.00 360422709.04 0.00 
180133.62 474730.78 46.56 692.00 1.00 4.00 1.00 0.00 1.00 0.00 0.00 0.00 0.00 -8.53 1.00 1220.00 360422709.04 0.00 
180133.34 474731.44 44.56 1062.00 2.00 4.00 1.00 0.00 1.00 0.00 0.00 0.00 0.00 -8.53 1.00 1220.00 360422709.04 0.00 
180132.44 474733.53 38.25 458.00 3.00 4.00 1.00 0.00 1.00 0.00 0.00 0.00 0.00 -8.53 1.00 1220.00 360422709.04 0.00 
180130.34 474738.06 24.56 1727.00 4.00 4.00 1.00 0.00 2.00 0.00 0.00 0.00 0.00 -8.53 1.00 1220.00 360422709.04 0.00 
180133.48 474730.38 47.53 274.00 1.00 4.00 1.00 0.00 1.00 0.00 0.00 0.00 0.00 -8.54 1.00 1220.00 360422709.04 0.00 
180133.42 474730.69 46.56 732.00 2.00 4.00 1.00 0.00 1.00 0.00 0.00 0.00 0.00 -8.54 1.00 1220.00 360422709.04 0.00 
180133.06 474731.34 44.51 917.00 3.00 4.00 1.00 0.00 1.00 0.00 0.00 0.00 0.00 -8.54 1.00 1220.00 360422709.04 0.00 
180130.06 474737.94 24.55 1785.00 4.00 4.00 1.00 0.00 2.00 0.00 0.00 0.00 0.00 -8.54 1.00 1220.00 360422709.04 0.00 
180133.06 474730.69 46.08 775.00 1.00 3.00 1.00 0.00 1.00 0.00 0.00 0.00 0.00 -8.55 1.00 1220.00 360422709.04 0.00 
180132.78 474731.25 44.44 612.00 2.00 3.00 1.00 0.00 1.00 0.00 0.00 0.00 0.00 -8.55 1.00 1220.00 360422709.04 0.00 
180129.80 474737.81 24.54 1560.00 3.00 3.00 1.00 0.00 2.00 0.00 0.00 0.00 0.00 -8.55 1.00 1220.00 360422709.04 0.00 
180132.97 474730.28 47.03 820.00 1.00 4.00 1.00 0.00 1.00 0.00 0.00 0.00 0.00 -8.55 1.00 1220.00 360422709.04 0.00 
180132.75 474730.72 45.76 545.00 2.00 4.00 1.00 0.00 1.00 0.00 0.00 0.00 0.00 -8.55 1.00 1220.00 360422709.04 0.00 
180132.56 474731.06 44.61 536.00 3.00 4.00 1.00 0.00 1.00 0.00 0.00 0.00 0.00 -8.55 1.00 1220.00 360422709.04 0.00 
180129.53 474737.69 24.55 1936.00 4.00 4.00 1.00 0.00 2.00 0.00 0.00 0.00 0.00 -8.55 1.00 1220.00 360422709.04 0.00 
180132.66 474730.31 46.68 289.00 1.00 3.00 1.00 0.00 1.00 0.00 0.00 0.00 0.00 -8.56 1.00 1220.00 360422709.04 0.00 
180131.44 474732.94 38.55 545.00 2.00 3.00 1.00 0.00 1.00 0.00 0.00 0.00 0.00 -8.56 1.00 1220.00 360422709.04 0.00 
180129.28 474737.56 24.53 2710.00 3.00 3.00 1.00 0.00 2.00 0.00 0.00 0.00 0.00 -8.56 1.00 1220.00 360422709.04 0.00 
180131.22 474732.72 38.87 535.00 1.00 2.00 1.00 0.00 1.00 0.00 0.00 0.00 0.00 -8.59 1.00 1220.00 360422709.04 0.00 
180129.03 474737.47 24.56 2843.00 2.00 2.00 1.00 0.00 2.00 0.00 0.00 0.00 0.00 -8.59 1.00 1220.00 360422709.04 0.00 
180131.91 474730.53 45.16 273.00 1.00 2.00 1.00 0.00 1.00 0.00 0.00 0.00 0.00 -8.59 1.00 1220.00 360422709.04 0.00 
180128.78 474737.34 24.56 2895.00 2.00 2.00 1.00 0.00 2.00 0.00 0.00 0.00 0.00 -8.59 1.00 1220.00 360422709.04 0.00 
180131.81 474730.00 46.60 273.00 1.00 4.00 1.00 0.00 1.00 0.00 0.00 0.00 0.00 -8.60 1.00 1220.00 360422709.04 0.00 
180130.73 474732.38 39.19 633.00 2.00 4.00 1.00 0.00 1.00 0.00 0.00 0.00 0.00 -8.60 1.00 1220.00 360422709.04 0.00 
180130.45 474733.00 37.32 367.00 3.00 4.00 1.00 0.00 1.00 0.00 0.00 0.00 0.00 -8.60 1.00 1220.00 360422709.04 0.00 
180128.53 474737.19 24.63 1764.00 4.00 4.00 1.00 0.00 2.00 0.00 0.00 0.00 0.00 -8.60 1.00 1220.00 360422709.04 0.00 
180131.69 474729.62 47.23 309.00 1.00 5.00 1.00 0.00 1.00 0.00 0.00 0.00 0.00 -8.62 1.00 1220.00 360422709.04 0.00 
180131.45 474730.06 45.84 563.00 2.00 5.00 1.00 0.00 1.00 0.00 0.00 0.00 0.00 -8.62 1.00 1220.00 360422709.04 0.00 
180130.45 474732.31 39.06 538.00 3.00 5.00 1.00 0.00 1.00 0.00 0.00 0.00 0.00 -8.62 1.00 1220.00 360422709.04 0.00 
180130.25 474732.78 37.61 543.00 4.00 5.00 1.00 0.00 1.00 0.00 0.00 0.00 0.00 -8.62 1.00 1220.00 360422709.04 0.00 
180128.28 474737.03 24.68 956.00 5.00 5.00 1.00 0.00 2.00 0.00 0.00 0.00 0.00 -8.62 1.00 1220.00 360422709.04 0.00 
180131.42 474729.50 47.21 710.00 1.00 5.00 1.00 0.00 1.00 0.00 0.00 0.00 0.00 -8.62 1.00 1220.00 360422709.04 0.00 
180131.34 474729.66 46.65 605.00 2.00 5.00 1.00 0.00 1.00 0.00 0.00 0.00 0.00 -8.62 1.00 1220.00 360422709.04 0.00 
180131.03 474730.31 44.80 562.00 3.00 5.00 1.00 0.00 1.00 0.00 0.00 0.00 0.00 -8.62 1.00 1220.00 360422709.04 0.00 
180130.02 474732.47 38.11 610.00 4.00 5.00 1.00 0.00 1.00 0.00 0.00 0.00 0.00 -8.62 1.00 1220.00 360422709.04 0.00 
180127.98 474736.94 24.62 1195.00 5.00 5.00 1.00 0.00 2.00 0.00 0.00 0.00 0.00 -8.62 1.00 1220.00 360422709.04 0.00 
180130.75 474730.22 44.74 570.00 1.00 5.00 1.00 0.00 1.00 0.00 0.00 0.00 0.00 -8.63 1.00 1220.00 360422709.04 0.00 
180129.94 474732.06 39.05 598.00 2.00 5.00 1.00 0.00 1.00 0.00 0.00 0.00 0.00 -8.63 1.00 1220.00 360422709.04 0.00 
180129.72 474732.47 37.69 547.00 3.00 5.00 1.00 0.00 1.00 0.00 0.00 0.00 0.00 -8.63 1.00 1220.00 360422709.04 0.00 
180129.48 474732.88 36.56 393.00 4.00 5.00 1.00 0.00 1.00 0.00 0.00 0.00 0.00 -8.63 1.00 1220.00 360422709.04 0.00 
180127.70 474736.81 24.61 2564.00 5.00 5.00 1.00 0.00 2.00 0.00 0.00 0.00 0.00 -8.63 1.00 1220.00 360422709.04 0.00 
180130.83 474729.34 46.90 689.00 1.00 4.00 1.00 0.00 1.00 0.00 0.00 0.00 0.00 -8.65 1.00 1220.00 360422709.04 0.00 
180129.69 474731.94 39.01 437.00 2.00 4.00 1.00 0.00 1.00 0.00 0.00 0.00 0.00 -8.65 1.00 1220.00 360422709.04 0.00 
180129.45 474732.34 37.82 691.00 3.00 4.00 1.00 0.00 1.00 0.00 0.00 0.00 0.00 -8.65 1.00 1220.00 360422709.04 0.00 
180127.44 474736.72 24.59 2239.00 4.00 4.00 1.00 0.00 2.00 0.00 0.00 0.00 0.00 -8.65 1.00 1220.00 360422709.04 0.00 
180130.58 474729.28 46.80 601.00 1.00 3.00 1.00 0.00 1.00 0.00 0.00 0.00 0.00 -8.66 1.00 1220.00 360422709.04 0.00 
180129.28 474732.19 37.99 804.00 2.00 3.00 1.00 0.00 1.00 0.00 0.00 0.00 0.00 -8.66 1.00 1220.00 360422709.04 0.00 
180127.17 474736.59 24.55 2120.00 3.00 3.00 1.00 0.00 2.00 0.00 0.00 0.00 0.00 -8.66 1.00 1220.00 360422709.04 0.00 
180130.33 474729.16 46.69 277.00 1.00 3.00 1.00 0.00 1.00 0.00 0.00 0.00 0.00 -8.67 1.00 1220.00 360422709.04 0.00 
180129.00 474732.12 37.82 726.00 2.00 3.00 1.00 0.00 1.00 0.00 0.00 0.00 0.00 -8.67 1.00 1220.00 360422709.04 0.00 
180126.92 474736.47 24.52 1809.00 3.00 3.00 1.00 0.00 2.00 0.00 0.00 0.00 0.00 -8.67 1.00 1220.00 360422709.04 0.00 
180130.91 474727.16 52.46 520.00 1.00 2.00 1.00 0.00 1.00 0.00 0.00 0.00 0.00 -8.68 1.00 1220.00 360422709.04 0.00 
180126.67 474736.38 24.53 1759.00 2.00 2.00 1.00 0.00 2.00 0.00 0.00 0.00 0.00 -8.68 1.00 1220.00 360422709.04 0.00 
180130.70 474727.16 52.30 320.00 1.00 4.00 1.00 0.00 1.00 0.00 0.00 0.00 0.00 -8.69 1.00 1220.00 360422709.04 0.00 
180129.34 474729.94 43.80 725.00 2.00 4.00 1.00 0.00 1.00 0.00 0.00 0.00 0.00 -8.69 1.00 1220.00 360422709.04 0.00 
180128.14 474732.50 36.02 562.00 3.00 4.00 1.00 0.00 1.00 0.00 0.00 0.00 0.00 -8.69 1.00 1220.00 360422709.04 0.00 
180128.02 474732.69 35.34 537.00 4.00 4.00 1.00 0.00 1.00 0.00 0.00 0.00 0.00 -8.69 1.00 1220.00 360422709.04 0.00 
180130.20 474727.34 51.26 681.00 1.00 3.00 1.00 0.00 1.00 0.00 0.00 0.00 0.00 -8.69 1.00 1220.00 360422709.04 0.00 
180127.72 474732.62 35.15 615.00 2.00 3.00 1.00 0.00 1.00 0.00 0.00 0.00 0.00 -8.69 1.00 1220.00 360422709.04 0.00 
180126.14 474736.12 24.57 1880.00 3.00 3.00 1.00 0.00 2.00 0.00 0.00 0.00 0.00 -8.69 1.00 1220.00 360422709.04 0.00 
180129.97 474727.25 51.17 710.00 1.00 3.00 1.00 0.00 1.00 0.00 0.00 0.00 0.00 -8.71 1.00 1220.00 360422709.04 0.00 
180127.42 474732.59 34.95 1424.00 2.00 3.00 1.00 0.00 1.00 0.00 0.00 0.00 0.00 -8.71 1.00 1220.00 360422709.04 0.00 
180125.88 474735.97 24.57 1178.00 3.00 3.00 1.00 0.00 2.00 0.00 0.00 0.00 0.00 -8.71 1.00 1220.00 360422709.04 0.00 
180130.14 474726.19 54.03 751.00 1.00 4.00 1.00 0.00 1.00 0.00 0.00 0.00 0.00 -8.72 1.00 1220.00 360422709.04 0.00 
180129.92 474726.59 52.89 616.00 2.00 4.00 1.00 0.00 1.00 0.00 0.00 0.00 0.00 -8.72 1.00 1220.00 360422709.04 0.00 
180129.67 474727.16 51.04 651.00 3.00 4.00 1.00 0.00 1.00 0.00 0.00 0.00 0.00 -8.72 1.00 1220.00 360422709.04 0.00 
180127.16 474732.50 34.82 1362.00 4.00 4.00 1.00 0.00 1.00 0.00 0.00 0.00 0.00 -8.72 1.00 1220.00 360422709.04 0.00 
180129.77 474726.38 53.05 591.00 1.00 6.00 1.00 0.00 1.00 0.00 0.00 0.00 0.00 -8.74 1.00 1220.00 360422709.04 0.00 
180129.70 474726.50 52.62 586.00 2.00 6.00 1.00 0.00 1.00 0.00 0.00 0.00 0.00 -8.74 1.00 1220.00 360422709.04 0.00 
180129.41 474727.06 50.90 543.00 3.00 6.00 1.00 0.00 1.00 0.00 0.00 0.00 0.00 -8.74 1.00 1220.00 360422709.04 0.00 
180127.00 474732.06 35.58 682.00 4.00 6.00 1.00 0.00 1.00 0.00 0.00 0.00 0.00 -8.74 1.00 1220.00 360422709.04 0.00 
180126.89 474732.44 34.61 1622.00 5.00 6.00 1.00 0.00 1.00 0.00 0.00 0.00 0.00 -8.74 1.00 1220.00 360422709.04 0.00 
180125.33 474735.75 24.53 648.00 6.00 6.00 1.00 0.00 2.00 0.00 0.00 0.00 0.00 -8.74 1.00 1220.00 360422709.04 0.00 
180129.59 474726.06 53.49 527.00 1.00 5.00 1.00 0.00 1.00 0.00 0.00 0.00 0.00 -8.75 1.00 1220.00 360422709.04 0.00 
180129.20 474726.91 51.08 519.00 2.00 5.00 1.00 0.00 1.00 0.00 0.00 0.00 0.00 -8.75 1.00 1220.00 360422709.04 0.00 
180127.67 474730.16 41.24 272.00 3.00 5.00 1.00 0.00 1.00 0.00 0.00 0.00 0.00 -8.75 1.00 1220.00 360422709.04 0.00 
180126.64 474732.31 34.51 1028.00 4.00 5.00 1.00 0.00 1.00 0.00 0.00 0.00 0.00 -8.75 1.00 1220.00 360422709.04 0.00 
180125.08 474735.62 24.56 1372.00 5.00 5.00 1.00 0.00 2.00 0.00 0.00 0.00 0.00 -8.75 1.00 1220.00 360422709.04 0.00 
180129.05 474726.62 51.56 469.00 1.00 5.00 1.00 0.00 1.00 0.00 0.00 0.00 0.00 -8.76 1.00 1220.00 360422709.04 0.00 
180127.38 474730.16 40.83 600.00 2.00 5.00 1.00 0.00 1.00 0.00 0.00 0.00 0.00 -8.76 1.00 1220.00 360422709.04 0.00 
180127.08 474730.62 39.41 521.00 3.00 5.00 1.00 0.00 1.00 0.00 0.00 0.00 0.00 -8.76 1.00 1220.00 360422709.04 0.00 
180126.50 474731.97 35.33 534.00 4.00 5.00 1.00 0.00 1.00 0.00 0.00 0.00 0.00 -8.76 1.00 1220.00 360422709.04 0.00 
180124.83 474735.50 24.53 1807.00 5.00 5.00 1.00 0.00 2.00 0.00 0.00 0.00 0.00 -8.76 1.00 1220.00 360422709.04 0.00 
180127.12 474730.00 40.89 523.00 1.00 4.00 1.00 0.00 1.00 0.00 0.00 0.00 0.00 -8.76 1.00 1220.00 360422709.04 0.00 
180126.88 474730.53 39.27 544.00 2.00 4.00 1.00 0.00 1.00 0.00 0.00 0.00 0.00 -8.76 1.00 1220.00 360422709.04 0.00 
180126.14 474732.06 34.60 1174.00 3.00 4.00 1.00 0.00 1.00 0.00 0.00 0.00 0.00 -8.76 1.00 1220.00 360422709.04 0.00 
180124.58 474735.38 24.54 1446.00 4.00 4.00 1.00 0.00 2.00 0.00 0.00 0.00 0.00 -8.76 1.00 1220.00 360422709.04 0.00 
180128.55 474726.28 51.90 326.00 1.00 4.00 1.00 0.00 1.00 0.00 0.00 0.00 0.00 -8.77 1.00 1220.00 360422709.04 0.00 
180126.86 474729.84 41.05 729.00 2.00 4.00 1.00 0.00 1.00 0.00 0.00 0.00 0.00 -8.77 1.00 1220.00 360422709.04 0.00 
180125.81 474732.12 34.04 551.00 3.00 4.00 1.00 0.00 1.00 0.00 0.00 0.00 0.00 -8.77 1.00 1220.00 360422709.04 0.00 
180124.31 474735.25 24.55 1700.00 4.00 4.00 1.00 0.00 2.00 0.00 0.00 0.00 0.00 -8.77 1.00 1220.00 360422709.04 0.00 
180126.61 474729.72 41.06 266.00 1.00 3.00 1.00 0.00 1.00 0.00 0.00 0.00 0.00 -8.78 1.00 1220.00 360422709.04 0.00 
180125.62 474731.84 34.67 316.00 2.00 3.00 1.00 0.00 1.00 0.00 0.00 0.00 0.00 -8.78 1.00 1220.00 360422709.04 0.00 
180124.05 474735.12 24.56 2475.00 3.00 3.00 1.00 0.00 2.00 0.00 0.00 0.00 0.00 -8.78 1.00 1220.00 360422709.04 0.00 
180128.28 474725.47 53.51 453.00 1.00 4.00 1.00 0.00 1.00 0.00 0.00 0.00 0.00 -8.80 1.00 1220.00 360422709.04 0.00 
180127.58 474726.91 49.37 692.00 2.00 4.00 1.00 0.00 1.00 0.00 0.00 0.00 0.00 -8.80 1.00 1220.00 360422709.04 0.00 
180126.31 474729.66 40.75 522.00 3.00 4.00 1.00 0.00 1.00 0.00 0.00 0.00 0.00 -8.80 1.00 1220.00 360422709.04 0.00 
180123.77 474735.00 24.55 2374.00 4.00 4.00 1.00 0.00 2.00 0.00 0.00 0.00 0.00 -8.80 1.00 1220.00 360422709.04 0.00 
180127.33 474726.78 49.22 701.00 1.00 2.00 1.00 0.00 1.00 0.00 0.00 0.00 0.00 -8.80 1.00 1220.00 360422709.04 0.00 
180123.48 474734.88 24.53 1690.00 2.00 2.00 1.00 0.00 2.00 0.00 0.00 0.00 0.00 -8.80 1.00 1220.00 360422709.04 0.00 
180128.05 474724.62 55.46 306.00 1.00 4.00 1.00 0.00 1.00 0.00 0.00 0.00 0.00 -8.83 1.00 1220.00 360422709.04 0.00 
180127.83 474725.12 53.94 701.00 2.00 4.00 1.00 0.00 1.00 0.00 0.00 0.00 0.00 -8.83 1.00 1220.00 360422709.04 0.00 
180127.02 474726.78 48.95 559.00 3.00 4.00 1.00 0.00 1.00 0.00 0.00 0.00 0.00 -8.83 1.00 1220.00 360422709.04 0.00 
180123.23 474734.75 24.54 1989.00 4.00 4.00 1.00 0.00 2.00 0.00 0.00 0.00 0.00 -8.83 1.00 1220.00 360422709.04 0.00 
180126.86 474726.47 49.40 887.00 1.00 3.00 1.00 0.00 1.00 0.00 0.00 0.00 0.00 -8.84 1.00 1220.00 360422709.04 0.00 
180124.61 474731.19 35.12 299.00 2.00 3.00 1.00 0.00 1.00 0.00 0.00 0.00 0.00 -8.84 1.00 1220.00 360422709.04 0.00 
180122.97 474734.62 24.52 1459.00 3.00 3.00 1.00 0.00 2.00 0.00 0.00 0.00 0.00 -8.84 1.00 1220.00 360422709.04 0.00 
180126.69 474726.19 50.06 605.00 1.00 3.00 1.00 0.00 1.00 0.00 0.00 0.00 0.00 -8.84 1.00 1220.00 360422709.04 0.00 
180124.36 474731.03 35.20 1503.00 2.00 3.00 1.00 0.00 1.00 0.00 0.00 0.00 0.00 -8.84 1.00 1220.00 360422709.04 0.00 
180122.72 474734.53 24.51 577.00 3.00 3.00 1.00 0.00 2.00 0.00 0.00 0.00 0.00 -8.84 1.00 1220.00 360422709.04 0.00 
180126.47 474726.03 49.95 462.00 1.00 3.00 1.00 0.00 1.00 0.00 0.00 0.00 0.00 -8.85 1.00 1220.00 360422709.04 0.00 
180126.12 474726.72 47.93 389.00 2.00 3.00 1.00 0.00 1.00 0.00 0.00 0.00 0.00 -8.85 1.00 1220.00 360422709.04 0.00 
180124.27 474730.59 36.28 1656.00 3.00 3.00 1.00 0.00 1.00 0.00 0.00 0.00 0.00 -8.85 1.00 1220.00 360422709.04 0.00 
180125.88 474726.59 47.99 715.00 1.00 2.00 1.00 0.00 1.00 0.00 0.00 0.00 0.00 -8.87 1.00 1220.00 360422709.04 0.00 
180124.03 474730.44 36.17 1476.00 2.00 2.00 1.00 0.00 1.00 0.00 0.00 0.00 0.00 -8.87 1.00 1220.00 360422709.04 0.00 
180125.64 474726.41 48.19 293.00 1.00 3.00 1.00 0.00 1.00 0.00 0.00 0.00 0.00 -8.87 1.00 1220.00 360422709.04 0.00 
180123.64 474730.62 35.16 1667.00 2.00 3.00 1.00 0.00 1.00 0.00 0.00 0.00 0.00 -8.87 1.00 1220.00 360422709.04 0.00 
180121.94 474734.16 24.49 1445.00 3.00 3.00 1.00 0.00 2.00 0.00 0.00 0.00 0.00 -8.87 1.00 1220.00 360422709.04 0.00 
180123.38 474730.47 35.22 1503.00 1.00 1.00 1.00 0.00 1.00 0.00 0.00 0.00 0.00 -8.88 1.00 1220.00 360422709.04 0.00 
180124.31 474727.69 43.44 515.00 1.00 4.00 1.00 0.00 1.00 0.00 0.00 0.00 0.00 -8.90 1.00 1220.00 360422709.04 0.00 
180123.91 474728.53 40.80 382.00 2.00 4.00 1.00 0.00 1.00 0.00 0.00 0.00 0.00 -8.90 1.00 1220.00 360422709.04 0.00 
180123.09 474730.38 35.28 1317.00 3.00 4.00 1.00 0.00 1.00 0.00 0.00 0.00 0.00 -8.90 1.00 1220.00 360422709.04 0.00 
180121.39 474733.88 24.49 1263.00 4.00 4.00 1.00 0.00 2.00 0.00 0.00 0.00 0.00 -8.90 1.00 1220.00 360422709.04 0.00 
180125.41 474724.81 52.03 283.00 1.00 5.00 1.00 0.00 1.00 0.00 0.00 0.00 0.00 -8.92 1.00 1220.00 360422709.04 0.00 
180124.20 474727.28 44.28 729.00 2.00 5.00 1.00 0.00 1.00 0.00 0.00 0.00 0.00 -8.92 1.00 1220.00 360422709.04 0.00 
180123.75 474728.31 41.16 794.00 3.00 5.00 1.00 0.00 1.00 0.00 0.00 0.00 0.00 -8.92 1.00 1220.00 360422709.04 0.00 
180122.84 474730.19 35.34 770.00 4.00 5.00 1.00 0.00 1.00 0.00 0.00 0.00 0.00 -8.92 1.00 1220.00 360422709.04 0.00 
180121.09 474733.78 24.39 272.00 5.00 5.00 1.00 0.00 2.00 0.00 0.00 0.00 0.00 -8.92 1.00 1220.00 360422709.04 0.00 
180125.08 474724.88 51.49 523.00 1.00 6.00 1.00 0.00 1.00 0.00 0.00 0.00 0.00 -8.92 1.00 1220.00 360422709.04 0.00 
180124.75 474725.56 49.21 339.00 2.00 6.00 1.00 0.00 1.00 0.00 0.00 0.00 0.00 -8.92 1.00 1220.00 360422709.04 0.00 
180124.08 474727.06 44.61 1316.00 3.00 6.00 1.00 0.00 1.00 0.00 0.00 0.00 0.00 -8.92 1.00 1220.00 360422709.04 0.00 
180123.80 474727.47 43.40 524.00 4.00 6.00 1.00 0.00 1.00 0.00 0.00 0.00 0.00 -8.92 1.00 1220.00 360422709.04 0.00 
180122.64 474730.00 35.47 345.00 5.00 6.00 1.00 0.00 1.00 0.00 0.00 0.00 0.00 -8.92 1.00 1220.00 360422709.04 0.00 
180120.86 474733.66 24.47 636.00 6.00 6.00 1.00 0.00 2.00 0.00 0.00 0.00 0.00 -8.92 1.00 1220.00 360422709.04 0.00 
180124.84 474724.72 51.55 514.00 1.00 7.00 1.00 0.00 1.00 0.00 0.00 0.00 0.00 -8.93 1.00 1220.00 360422709.04 0.00 
180123.89 474726.78 44.99 590.00 2.00 7.00 1.00 0.00 1.00 0.00 0.00 0.00 0.00 -8.93 1.00 1220.00 360422709.04 0.00 
180123.64 474727.31 43.39 470.00 3.00 7.00 1.00 0.00 1.00 0.00 0.00 0.00 0.00 -8.93 1.00 1220.00 360422709.04 0.00 
180122.50 474729.59 36.44 284.00 4.00 7.00 1.00 0.00 1.00 0.00 0.00 0.00 0.00 -8.93 1.00 1220.00 360422709.04 0.00 
180122.34 474729.94 35.43 653.00 5.00 7.00 1.00 0.00 1.00 0.00 0.00 0.00 0.00 -8.93 1.00 1220.00 360422709.04 0.00 
180121.34 474731.97 29.27 321.00 6.00 7.00 1.00 0.00 1.00 0.00 0.00 0.00 0.00 -8.93 1.00 1220.00 360422709.04 0.00 
180120.61 474733.53 24.47 1119.00 7.00 7.00 1.00 0.00 2.00 0.00 0.00 0.00 0.00 -8.93 1.00 1220.00 360422709.04 0.00 
180124.56 474724.66 51.31 561.00 1.00 6.00 1.00 0.00 1.00 0.00 0.00 0.00 0.00 -8.93 1.00 1220.00 360422709.04 0.00 
180124.28 474725.22 49.46 323.00 2.00 6.00 1.00 0.00 1.00 0.00 0.00 0.00 0.00 -8.93 1.00 1220.00 360422709.04 0.00 
180123.45 474727.00 44.01 515.00 3.00 6.00 1.00 0.00 1.00 0.00 0.00 0.00 0.00 -8.93 1.00 1220.00 360422709.04 0.00 
180123.28 474727.38 42.71 603.00 4.00 6.00 1.00 0.00 1.00 0.00 0.00 0.00 0.00 -8.93 1.00 1220.00 360422709.04 0.00 
180122.11 474729.81 35.38 341.00 5.00 6.00 1.00 0.00 1.00 0.00 0.00 0.00 0.00 -8.93 1.00 1220.00 360422709.04 0.00 
180121.17 474731.72 29.59 1567.00 6.00 6.00 1.00 0.00 1.00 0.00 0.00 0.00 0.00 -8.93 1.00 1220.00 360422709.04 0.00 
180124.39 474724.38 51.83 332.00 1.00 6.00 1.00 0.00 1.00 0.00 0.00 0.00 0.00 -8.95 1.00 1220.00 360422709.04 0.00 
180124.38 474724.50 51.30 367.00 2.00 6.00 1.00 0.00 1.00 0.00 0.00 0.00 0.00 -8.95 1.00 1220.00 360422709.04 0.00 
180124.03 474725.16 49.38 572.00 3.00 6.00 1.00 0.00 1.00 0.00 0.00 0.00 0.00 -8.95 1.00 1220.00 360422709.04 0.00 
180122.91 474727.47 42.36 377.00 4.00 6.00 1.00 0.00 1.00 0.00 0.00 0.00 0.00 -8.95 1.00 1220.00 360422709.04 0.00 
180122.14 474728.94 37.56 350.00 5.00 6.00 1.00 0.00 1.00 0.00 0.00 0.00 0.00 -8.95 1.00 1220.00 360422709.04 0.00 
180120.94 474731.53 29.73 2133.00 6.00 6.00 1.00 0.00 1.00 0.00 0.00 0.00 0.00 -8.95 1.00 1220.00 360422709.04 0.00 
180124.19 474724.12 52.07 460.00 1.00 6.00 1.00 0.00 1.00 0.00 0.00 0.00 0.00 -8.97 1.00 1220.00 360422709.04 0.00 
180123.86 474724.88 49.72 423.00 2.00 6.00 1.00 0.00 1.00 0.00 0.00 0.00 0.00 -8.97 1.00 1220.00 360422709.04 0.00 
180121.89 474728.88 37.51 539.00 3.00 6.00 1.00 0.00 1.00 0.00 0.00 0.00 0.00 -8.97 1.00 1220.00 360422709.04 0.00 
180121.62 474729.47 35.65 650.00 4.00 6.00 1.00 0.00 1.00 0.00 0.00 0.00 0.00 -8.97 1.00 1220.00 360422709.04 0.00 
180120.67 474731.47 29.52 666.00 5.00 6.00 1.00 0.00 1.00 0.00 0.00 0.00 0.00 -8.97 1.00 1220.00 360422709.04 0.00 
180119.83 474733.12 24.50 1908.00 6.00 6.00 1.00 0.00 2.00 0.00 0.00 0.00 0.00 -8.97 1.00 1220.00 360422709.04 0.00 
180121.58 474728.81 37.26 511.00 1.00 2.00 1.00 0.00 1.00 0.00 0.00 0.00 0.00 -8.98 1.00 1220.00 360422709.04 0.00 
180119.56 474733.00 24.49 2839.00 2.00 2.00 1.00 0.00 2.00 0.00 0.00 0.00 0.00 -8.98 1.00 1220.00 360422709.04 0.00 
180123.27 474724.69 49.48 368.00 1.00 4.00 1.00 0.00 1.00 0.00 0.00 0.00 0.00 -8.98 1.00 1220.00 360422709.04 0.00 
180121.42 474728.38 38.09 641.00 2.00 4.00 1.00 0.00 1.00 0.00 0.00 0.00 0.00 -8.98 1.00 1220.00 360422709.04 0.00 
180121.20 474728.84 36.83 538.00 3.00 4.00 1.00 0.00 1.00 0.00 0.00 0.00 0.00 -8.98 1.00 1220.00 360422709.04 0.00 
180119.28 474732.88 24.49 2539.00 4.00 4.00 1.00 0.00 2.00 0.00 0.00 0.00 0.00 -8.98 1.00 1220.00 360422709.04 0.00 
180121.14 474728.38 37.84 822.00 1.00 4.00 1.00 0.00 1.00 0.00 0.00 0.00 0.00 -9.00 1.00 1220.00 360422709.04 0.00 
180120.98 474728.78 36.71 305.00 2.00 4.00 1.00 0.00 1.00 0.00 0.00 0.00 0.00 -9.00 1.00 1220.00 360422709.04 0.00 
180120.95 474728.84 36.44 397.00 3.00 4.00 1.00 0.00 1.00 0.00 0.00 0.00 0.00 -9.00 1.00 1220.00 360422709.04 0.00 
180119.02 474732.75 24.47 2388.00 4.00 4.00 1.00 0.00 2.00 0.00 0.00 0.00 0.00 -9.00 1.00 1220.00 360422709.04 0.00 
180120.86 474728.31 37.65 1022.00 1.00 2.00 1.00 0.00 1.00 0.00 0.00 0.00 0.00 -9.01 1.00 1220.00 360422709.04 0.00 
180118.77 474732.62 24.47 2108.00 2.00 2.00 1.00 0.00 2.00 0.00 0.00 0.00 0.00 -9.01 1.00 1220.00 360422709.04 0.00 
180122.77 474723.81 51.01 353.00 1.00 3.00 1.00 0.00 1.00 0.00 0.00 0.00 0.00 -9.01 1.00 1220.00 360422709.04 0.00 
180120.55 474728.41 36.99 651.00 2.00 3.00 1.00 0.00 1.00 0.00 0.00 0.00 0.00 -9.01 1.00 1220.00 360422709.04 0.00 
180118.52 474732.53 24.44 2353.00 3.00 3.00 1.00 0.00 2.00 0.00 0.00 0.00 0.00 -9.01 1.00 1220.00 360422709.04 0.00 
180122.62 474723.44 51.77 602.00 1.00 5.00 1.00 0.00 1.00 0.00 0.00 0.00 0.00 -9.02 1.00 1220.00 360422709.04 0.00 
180122.48 474723.72 50.96 593.00 2.00 5.00 1.00 0.00 1.00 0.00 0.00 0.00 0.00 -9.02 1.00 1220.00 360422709.04 0.00 
180120.44 474727.84 38.31 329.00 3.00 5.00 1.00 0.00 1.00 0.00 0.00 0.00 0.00 -9.02 1.00 1220.00 360422709.04 0.00 
180120.33 474728.16 37.39 590.00 4.00 5.00 1.00 0.00 1.00 0.00 0.00 0.00 0.00 -9.02 1.00 1220.00 360422709.04 0.00 
180118.27 474732.41 24.45 1784.00 5.00 5.00 1.00 0.00 2.00 0.00 0.00 0.00 0.00 -9.02 1.00 1220.00 360422709.04 0.00 
180122.17 474723.72 50.58 633.00 1.00 5.00 1.00 0.00 1.00 0.00 0.00 0.00 0.00 -9.05 1.00 1220.00 360422709.04 0.00 
180121.64 474724.78 47.33 480.00 2.00 5.00 1.00 0.00 1.00 0.00 0.00 0.00 0.00 -9.05 1.00 1220.00 360422709.04 0.00 
180120.20 474727.78 38.21 842.00 3.00 5.00 1.00 0.00 1.00 0.00 0.00 0.00 0.00 -9.05 1.00 1220.00 360422709.04 0.00 
180118.20 474731.78 25.70 364.00 4.00 5.00 1.00 0.00 1.00 0.00 0.00 0.00 0.00 -9.05 1.00 1220.00 360422709.04 0.00 
180117.98 474732.28 24.42 1677.00 5.00 5.00 1.00 0.00 2.00 0.00 0.00 0.00 0.00 -9.05 1.00 1220.00 360422709.04 0.00 
180122.06 474723.28 51.45 743.00 1.00 6.00 1.00 0.00 1.00 0.00 0.00 0.00 0.00 -9.05 1.00 1220.00 360422709.04 0.00 
180121.39 474724.66 47.37 520.00 2.00 6.00 1.00 0.00 1.00 0.00 0.00 0.00 0.00 -9.05 1.00 1220.00 360422709.04 0.00 
180120.25 474727.00 40.20 335.00 3.00 6.00 1.00 0.00 1.00 0.00 0.00 0.00 0.00 -9.05 1.00 1220.00 360422709.04 0.00 
180120.00 474727.44 38.87 516.00 4.00 6.00 1.00 0.00 1.00 0.00 0.00 0.00 0.00 -9.05 1.00 1220.00 360422709.04 0.00 
180117.94 474731.69 25.67 688.00 5.00 6.00 1.00 0.00 1.00 0.00 0.00 0.00 0.00 -9.05 1.00 1220.00 360422709.04 0.00 
180117.73 474732.12 24.44 1442.00 6.00 6.00 1.00 0.00 2.00 0.00 0.00 0.00 0.00 -9.05 1.00 1220.00 360422709.04 0.00 
180121.67 474723.41 50.99 406.00 1.00 7.00 1.00 0.00 1.00 0.00 0.00 0.00 0.00 -9.06 1.00 1220.00 360422709.04 0.00 
180121.39 474724.00 48.99 331.00 2.00 7.00 1.00 0.00 1.00 0.00 0.00 0.00 0.00 -9.06 1.00 1220.00 360422709.04 0.00 
180121.14 474724.50 47.48 541.00 3.00 7.00 1.00 0.00 1.00 0.00 0.00 0.00 0.00 -9.06 1.00 1220.00 360422709.04 0.00 
180119.77 474727.28 38.97 412.00 4.00 7.00 1.00 0.00 1.00 0.00 0.00 0.00 0.00 -9.06 1.00 1220.00 360422709.04 0.00 
180119.52 474727.78 37.32 392.00 5.00 7.00 1.00 0.00 1.00 0.00 0.00 0.00 0.00 -9.06 1.00 1220.00 360422709.04 0.00 
180117.64 474731.59 25.57 1097.00 6.00 7.00 1.00 0.00 1.00 0.00 0.00 0.00 0.00 -9.06 1.00 1220.00 360422709.04 0.00 
180117.45 474732.00 24.43 975.00 7.00 7.00 1.00 0.00 2.00 0.00 0.00 0.00 0.00 -9.06 1.00 1220.00 360422709.04 0.00 
180120.92 474724.28 47.63 317.00 1.00 5.00 1.00 0.00 1.00 0.00 0.00 0.00 0.00 -9.08 1.00 1220.00 360422709.04 0.00 
180120.48 474725.09 45.27 475.00 2.00 5.00 1.00 0.00 1.00 0.00 0.00 0.00 0.00 -9.08 1.00 1220.00 360422709.04 0.00 
180119.45 474727.19 38.76 551.00 3.00 5.00 1.00 0.00 1.00 0.00 0.00 0.00 0.00 -9.08 1.00 1220.00 360422709.04 0.00 
180119.16 474727.84 36.64 567.00 4.00 5.00 1.00 0.00 1.00 0.00 0.00 0.00 0.00 -9.08 1.00 1220.00 360422709.04 0.00 
180117.19 474731.88 24.41 1403.00 5.00 5.00 1.00 0.00 2.00 0.00 0.00 0.00 0.00 -9.08 1.00 1220.00 360422709.04 0.00 
180118.86 474727.75 36.67 539.00 1.00 2.00 1.00 0.00 1.00 0.00 0.00 0.00 0.00 -9.08 1.00 1220.00 360422709.04 0.00 
180116.91 474731.75 24.36 2483.00 2.00 2.00 1.00 0.00 2.00 0.00 0.00 0.00 0.00 -9.08 1.00 1220.00 360422709.04 0.00 
180120.06 474724.69 45.82 267.00 1.00 3.00 1.00 0.00 1.00 0.00 0.00 0.00 0.00 -9.09 1.00 1220.00 360422709.04 0.00 
180118.66 474727.59 36.87 351.00 2.00 3.00 1.00 0.00 1.00 0.00 0.00 0.00 0.00 -9.09 1.00 1220.00 360422709.04 0.00 
180116.64 474731.66 24.33 2016.00 3.00 3.00 1.00 0.00 2.00 0.00 0.00 0.00 0.00 -9.09 1.00 1220.00 360422709.04 0.00 
180119.78 474724.66 45.50 648.00 1.00 3.00 1.00 0.00 1.00 0.00 0.00 0.00 0.00 -9.11 1.00 1220.00 360422709.04 0.00 
180118.38 474727.53 36.59 560.00 2.00 3.00 1.00 0.00 1.00 0.00 0.00 0.00 0.00 -9.11 1.00 1220.00 360422709.04 0.00 
180116.41 474731.53 24.35 1917.00 3.00 3.00 1.00 0.00 2.00 0.00 0.00 0.00 0.00 -9.11 1.00 1220.00 360422709.04 0.00 
180119.56 474724.50 45.54 933.00 1.00 3.00 1.00 0.00 1.00 0.00 0.00 0.00 0.00 -9.11 1.00 1220.00 360422709.04 0.00 
180118.11 474727.41 36.53 569.00 2.00 3.00 1.00 0.00 1.00 0.00 0.00 0.00 0.00 -9.11 1.00 1220.00 360422709.04 0.00 
180116.16 474731.41 24.34 2260.00 3.00 3.00 1.00 0.00 2.00 0.00 0.00 0.00 0.00 -9.11 1.00 1220.00 360422709.04 0.00 
180119.50 474724.06 46.53 518.00 1.00 4.00 1.00 0.00 1.00 0.00 0.00 0.00 0.00 -9.13 1.00 1220.00 360422709.04 0.00 
180119.31 474724.34 45.62 845.00 2.00 4.00 1.00 0.00 1.00 0.00 0.00 0.00 0.00 -9.13 1.00 1220.00 360422709.04 0.00 
180117.86 474727.31 36.49 580.00 3.00 4.00 1.00 0.00 1.00 0.00 0.00 0.00 0.00 -9.13 1.00 1220.00 360422709.04 0.00 
180115.89 474731.25 24.37 2154.00 4.00 4.00 1.00 0.00 2.00 0.00 0.00 0.00 0.00 -9.13 1.00 1220.00 360422709.04 0.00 
180119.08 474724.16 45.82 462.00 1.00 3.00 1.00 0.00 1.00 0.00 0.00 0.00 0.00 -9.14 1.00 1220.00 360422709.04 0.00 
180117.50 474727.28 36.21 488.00 2.00 3.00 1.00 0.00 1.00 0.00 0.00 0.00 0.00 -9.14 1.00 1220.00 360422709.04 0.00 
180115.62 474731.12 24.39 2986.00 3.00 3.00 1.00 0.00 2.00 0.00 0.00 0.00 0.00 -9.14 1.00 1220.00 360422709.04 0.00 
180118.86 474724.03 45.89 622.00 1.00 3.00 1.00 0.00 1.00 0.00 0.00 0.00 0.00 -9.16 1.00 1220.00 360422709.04 0.00 
180117.20 474727.19 36.05 749.00 2.00 3.00 1.00 0.00 1.00 0.00 0.00 0.00 0.00 -9.16 1.00 1220.00 360422709.04 0.00 
180115.34 474730.97 24.40 2538.00 3.00 3.00 1.00 0.00 2.00 0.00 0.00 0.00 0.00 -9.16 1.00 1220.00 360422709.04 0.00 
180117.09 474726.72 36.97 423.00 1.00 3.00 1.00 0.00 1.00 0.00 0.00 0.00 0.00 -9.16 1.00 1220.00 360422709.04 0.00 
180116.86 474727.19 35.65 611.00 2.00 3.00 1.00 0.00 1.00 0.00 0.00 0.00 0.00 -9.16 1.00 1220.00 360422709.04 0.00 
180115.08 474730.84 24.41 3285.00 3.00 3.00 1.00 0.00 2.00 0.00 0.00 0.00 0.00 -9.16 1.00 1220.00 360422709.04 0.00 
180116.66 474727.06 35.55 785.00 1.00 2.00 1.00 0.00 1.00 0.00 0.00 0.00 0.00 -9.17 1.00 1220.00 360422709.04 0.00 
180114.81 474730.72 24.41 2877.00 2.00 2.00 1.00 0.00 2.00 0.00 0.00 0.00 0.00 -9.17 1.00 1220.00 360422709.04 0.00 
180116.66 474726.47 37.14 480.00 1.00 3.00 1.00 0.00 1.00 0.00 0.00 0.00 0.00 -9.17 1.00 1220.00 360422709.04 0.00 
180116.23 474727.16 34.96 540.00 2.00 3.00 1.00 0.00 1.00 0.00 0.00 0.00 0.00 -9.17 1.00 1220.00 360422709.04 0.00 
180114.56 474730.59 24.41 3171.00 3.00 3.00 1.00 0.00 2.00 0.00 0.00 0.00 0.00 -9.17 1.00 1220.00 360422709.04 0.00 
180116.02 474727.09 34.72 533.00 1.00 2.00 1.00 0.00 1.00 0.00 0.00 0.00 0.00 -9.19 1.00 1220.00 360422709.04 0.00 
180114.31 474730.47 24.41 3244.00 2.00 2.00 1.00 0.00 2.00 0.00 0.00 0.00 0.00 -9.19 1.00 1220.00 360422709.04 0.00 
180114.06 474730.31 24.43 3822.00 1.00 1.00 1.00 0.00 2.00 0.00 0.00 0.00 0.00 -9.21 1.00 1220.00 360422709.04 0.00 
180113.80 474730.19 24.44 4230.00 1.00 1.00 1.00 0.00 2.00 0.00 0.00 0.00 0.00 -9.22 1.00 1220.00 360422709.04 0.00 
180116.44 474724.16 42.45 541.00 1.00 2.00 1.00 0.00 1.00 0.00 0.00 0.00 0.00 -9.22 1.00 1220.00 360422709.04 0.00 
180113.53 474730.06 24.45 3890.00 2.00 2.00 1.00 0.00 2.00 0.00 0.00 0.00 0.00 -9.22 1.00 1220.00 360422709.04 0.00 
180116.14 474724.16 42.29 1025.00 1.00 2.00 1.00 0.00 1.00 0.00 0.00 0.00 0.00 -9.23 1.00 1220.00 360422709.04 0.00 
180113.27 474729.91 24.46 2909.00 2.00 2.00 1.00 0.00 2.00 0.00 0.00 0.00 0.00 -9.23 1.00 1220.00 360422709.04 0.00 
180115.92 474723.94 42.40 670.00 1.00 2.00 1.00 0.00 1.00 0.00 0.00 0.00 0.00 -9.25 1.00 1220.00 360422709.04 0.00 
180113.00 474729.78 24.46 3493.00 2.00 2.00 1.00 0.00 2.00 0.00 0.00 0.00 0.00 -9.25 1.00 1220.00 360422709.04 0.00 
180115.61 474723.91 42.17 805.00 1.00 2.00 1.00 0.00 1.00 0.00 0.00 0.00 0.00 -9.26 1.00 1220.00 360422709.04 0.00 
180112.73 474729.62 24.49 3161.00 2.00 2.00 1.00 0.00 2.00 0.00 0.00 0.00 0.00 -9.26 1.00 1220.00 360422709.04 0.00 
180115.31 474723.88 41.81 708.00 1.00 2.00 1.00 0.00 1.00 0.00 0.00 0.00 0.00 -9.27 1.00 1220.00 360422709.04 0.00 
180112.48 474729.50 24.49 3460.00 2.00 2.00 1.00 0.00 2.00 0.00 0.00 0.00 0.00 -9.27 1.00 1220.00 360422709.04 0.00 
180112.23 474729.38 24.48 4073.00 1.00 1.00 1.00 0.00 2.00 0.00 0.00 0.00 0.00 -9.29 1.00 1220.00 360422709.04 0.00 
180114.58 474724.12 40.31 816.00 1.00 2.00 1.00 0.00 1.00 0.00 0.00 0.00 0.00 -9.29 1.00 1220.00 360422709.04 0.00 
180111.97 474729.25 24.48 3107.00 2.00 2.00 1.00 0.00 2.00 0.00 0.00 0.00 0.00 -9.29 1.00 1220.00 360422709.04 0.00 
180111.72 474729.12 24.48 4133.00 1.00 1.00 1.00 0.00 2.00 0.00 0.00 0.00 0.00 -9.30 1.00 1220.00 360422709.04 0.00 
180113.97 474724.03 39.79 364.00 1.00 2.00 1.00 0.00 1.00 0.00 0.00 0.00 0.00 -9.31 1.00 1220.00 360422709.04 0.00 
180111.45 474728.97 24.48 4517.00 2.00 2.00 1.00 0.00 2.00 0.00 0.00 0.00 0.00 -9.31 1.00 1220.00 360422709.04 0.00 
180111.17 474728.84 24.48 4643.00 1.00 1.00 1.00 0.00 2.00 0.00 0.00 0.00 0.00 -9.31 1.00 1220.00 360422709.04 0.00 
180110.91 474728.72 24.47 4402.00 1.00 1.00 1.00 0.00 2.00 0.00 0.00 0.00 0.00 -9.34 1.00 1220.00 360422709.04 0.00 
180113.45 474723.06 41.49 307.00 1.00 2.00 1.00 0.00 1.00 0.00 0.00 0.00 0.00 -9.35 1.00 1220.00 360422709.04 0.00 
180110.64 474728.56 24.49 4566.00 2.00 2.00 1.00 0.00 2.00 0.00 0.00 0.00 0.00 -9.35 1.00 1220.00 360422709.04 0.00 
180110.39 474728.44 24.48 4675.00 1.00 1.00 1.00 0.00 2.00 0.00 0.00 0.00 0.00 -9.35 1.00 1220.00 360422709.04 0.00 
180110.14 474728.31 24.49 4258.00 1.00 1.00 1.00 0.00 2.00 0.00 0.00 0.00 0.00 -9.37 1.00 1220.00 360422709.04 0.00 
180109.89 474728.19 24.48 4362.00 1.00 1.00 1.00 0.00 2.00 0.00 0.00 0.00 0.00 -9.38 1.00 1220.00 360422709.04 0.00 
180109.62 474728.06 24.47 4262.00 1.00 1.00 1.00 0.00 2.00 0.00 0.00 0.00 0.00 -9.39 1.00 1220.00 360422709.04 0.00 
180109.36 474727.91 24.47 4255.00 1.00 1.00 1.00 0.00 2.00 0.00 0.00 0.00 0.00 -9.40 1.00 1220.00 360422709.04 0.00 
180136.12 474733.16 44.44 352.00 1.00 2.00 1.00 0.00 1.00 0.00 0.00 0.00 0.00 -8.41 1.00 1220.00 360422709.04 0.00 
180133.19 474739.75 24.58 3418.00 2.00 2.00 1.00 0.00 2.00 0.00 0.00 0.00 0.00 -8.41 1.00 1220.00 360422709.04 0.00 
180135.88 474733.03 44.49 793.00 1.00 5.00 1.00 0.00 1.00 0.00 0.00 0.00 0.00 -8.42 1.00 1220.00 360422709.04 0.00 
180135.20 474734.47 40.14 552.00 2.00 5.00 1.00 0.00 1.00 0.00 0.00 0.00 0.00 -8.42 1.00 1220.00 360422709.04 0.00 
180134.73 474735.47 37.07 336.00 3.00 5.00 1.00 0.00 1.00 0.00 0.00 0.00 0.00 -8.42 1.00 1220.00 360422709.04 0.00 
180133.09 474739.19 25.86 394.00 4.00 5.00 1.00 0.00 1.00 0.00 0.00 0.00 0.00 -8.42 1.00 1220.00 360422709.04 0.00 
180132.91 474739.62 24.59 2198.00 5.00 5.00 1.00 0.00 2.00 0.00 0.00 0.00 0.00 -8.42 1.00 1220.00 360422709.04 0.00 
180135.61 474732.88 44.56 711.00 1.00 3.00 1.00 0.00 1.00 0.00 0.00 0.00 0.00 -8.42 1.00 1220.00 360422709.04 0.00 
180134.56 474735.22 37.53 543.00 2.00 3.00 1.00 0.00 1.00 0.00 0.00 0.00 0.00 -8.42 1.00 1220.00 360422709.04 0.00 
180132.64 474739.50 24.59 2288.00 3.00 3.00 1.00 0.00 2.00 0.00 0.00 0.00 0.00 -8.42 1.00 1220.00 360422709.04 0.00 
180135.67 474731.94 46.98 604.00 1.00 4.00 1.00 0.00 1.00 0.00 0.00 0.00 0.00 -8.44 1.00 1220.00 360422709.04 0.00 
180135.36 474732.75 44.63 380.00 2.00 4.00 1.00 0.00 1.00 0.00 0.00 0.00 0.00 -8.44 1.00 1220.00 360422709.04 0.00 
180134.33 474734.94 37.87 654.00 3.00 4.00 1.00 0.00 1.00 0.00 0.00 0.00 0.00 -8.44 1.00 1220.00 360422709.04 0.00 
180132.38 474739.38 24.60 2286.00 4.00 4.00 1.00 0.00 2.00 0.00 0.00 0.00 0.00 -8.44 1.00 1220.00 360422709.04 0.00 
180135.45 474731.78 47.08 589.00 1.00 3.00 1.00 0.00 1.00 0.00 0.00 0.00 0.00 -8.46 1.00 1220.00 360422709.04 0.00 
180134.11 474734.88 37.89 1028.00 2.00 3.00 1.00 0.00 1.00 0.00 0.00 0.00 0.00 -8.46 1.00 1220.00 360422709.04 0.00 
180132.11 474739.25 24.60 2158.00 3.00 3.00 1.00 0.00 2.00 0.00 0.00 0.00 0.00 -8.46 1.00 1220.00 360422709.04 0.00 
180135.22 474731.66 47.08 465.00 1.00 5.00 1.00 0.00 1.00 0.00 0.00 0.00 0.00 -8.46 1.00 1220.00 360422709.04 0.00 
180134.89 474732.44 44.86 432.00 2.00 5.00 1.00 0.00 1.00 0.00 0.00 0.00 0.00 -8.46 1.00 1220.00 360422709.04 0.00 
180134.23 474733.78 40.86 647.00 3.00 5.00 1.00 0.00 1.00 0.00 0.00 0.00 0.00 -8.46 1.00 1220.00 360422709.04 0.00 
