VERSION 0.7
FIELDS x y z intensity returnnumber numberofreturns scandirectionflag edgeofflightline classification synthetic keypoint withheld overlap scananglerank userdata pointsourceid gpstime scanchannel
SIZE 4 4 4 8 8 8 8 8 8 8 8 8 8 8 8 8 8 8
TYPE F F F F F F F F F F F F F F F F F F
COUNT 1 1 1 1 1 1 1 1 1 1 1 1 1 1 1 1 1 1
WIDTH 399
HEIGHT 1
VIEWPOINT 0.0 0.0 0.0 1.0 0.0 0.0 0.0
POINTS 399
DATA ascii
155960.88 474743.53 90095.61 350.00 5.00 6.00 1.00 0.00 1.00 0.00 0.00 0.00 0.00 -9.17 1.00 1220.00 360422709.31 0.00 
155957.72 474740.81 90103.05 555.00 1.00 4.00 1.00 0.00 1.00 0.00 0.00 0.00 0.00 -9.17 1.00 1220.00 360422709.31 0.00 
155958.94 474741.94 90099.76 332.00 2.00 4.00 1.00 0.00 1.00 0.00 0.00 0.00 0.00 -9.17 1.00 1220.00 360422709.31 0.00 
155959.42 474742.28 90098.65 657.00 3.00 4.00 1.00 0.00 1.00 0.00 0.00 0.00 0.00 -9.17 1.00 1220.00 360422709.31 0.00 
155958.70 474741.72 90099.75 667.00 1.00 2.00 1.00 0.00 1.00 0.00 0.00 0.00 0.00 -9.19 1.00 1220.00 360422709.31 0.00 
155957.94 474741.12 90101.07 325.00 1.00 3.00 1.00 0.00 1.00 0.00 0.00 0.00 0.00 -9.21 1.00 1220.00 360422709.31 0.00 
155958.34 474741.56 90099.84 592.00 2.00 3.00 1.00 0.00 1.00 0.00 0.00 0.00 0.00 -9.21 1.00 1220.00 360422709.31 0.00 
155957.47 474740.75 90101.59 656.00 1.00 3.00 1.00 0.00 1.00 0.00 0.00 0.00 0.00 -9.22 1.00 1220.00 360422709.31 0.00 
155958.39 474741.62 90099.01 704.00 2.00 3.00 1.00 0.00 1.00 0.00 0.00 0.00 0.00 -9.22 1.00 1220.00 360422709.31 0.00 
155956.81 474740.25 90102.48 588.00 1.00 3.00 1.00 0.00 1.00 0.00 0.00 0.00 0.00 -9.22 1.00 1220.00 360422709.31 0.00 
155958.19 474741.50 90098.99 559.00 2.00 3.00 1.00 0.00 1.00 0.00 0.00 0.00 0.00 -9.22 1.00 1220.00 360422709.31 0.00 
155957.98 474741.38 90098.69 494.00 1.00 2.00 1.00 0.00 1.00 0.00 0.00 0.00 0.00 -9.23 1.00 1220.00 360422709.31 0.00 
155956.34 474740.00 90102.30 579.00 1.00 2.00 1.00 0.00 1.00 0.00 0.00 0.00 0.00 -9.25 1.00 1220.00 360422709.31 0.00 
155956.22 474739.94 90101.91 680.00 1.00 2.00 1.00 0.00 1.00 0.00 0.00 0.00 0.00 -9.26 1.00 1220.00 360422709.31 0.00 
155955.97 474739.81 90101.85 514.00 1.00 2.00 1.00 0.00 1.00 0.00 0.00 0.00 0.00 -9.27 1.00 1220.00 360422709.31 0.00 
155954.78 474738.75 90104.26 464.00 1.00 3.00 1.00 0.00 1.00 0.00 0.00 0.00 0.00 -9.29 1.00 1220.00 360422709.31 0.00 
155955.80 474739.72 90101.63 521.00 2.00 3.00 1.00 0.00 1.00 0.00 0.00 0.00 0.00 -9.29 1.00 1220.00 360422709.31 0.00 
155955.95 474740.06 90098.95 444.00 1.00 2.00 1.00 0.00 1.00 0.00 0.00 0.00 0.00 -9.31 1.00 1220.00 360422709.31 0.00 
155955.72 474739.94 90098.83 619.00 1.00 2.00 1.00 0.00 1.00 0.00 0.00 0.00 0.00 -9.31 1.00 1220.00 360422709.31 0.00 
155953.28 474738.12 90101.01 475.00 1.00 2.00 1.00 0.00 1.00 0.00 0.00 0.00 0.00 -9.39 1.00 1220.00 360422709.31 0.00 
155962.30 474744.12 90102.69 769.00 1.00 2.00 1.00 0.00 1.00 0.00 0.00 0.00 0.00 -9.00 1.00 1220.00 360422709.32 0.00 
155962.09 474743.97 90102.66 712.00 1.00 2.00 1.00 0.00 1.00 0.00 0.00 0.00 0.00 -9.01 1.00 1220.00 360422709.32 0.00 
155962.08 474744.03 90101.99 529.00 1.00 2.00 1.00 0.00 1.00 0.00 0.00 0.00 0.00 -9.02 1.00 1220.00 360422709.32 0.00 
155962.06 474744.09 90101.27 553.00 1.00 2.00 1.00 0.00 1.00 0.00 0.00 0.00 0.00 -9.02 1.00 1220.00 360422709.32 0.00 
155960.89 474743.41 90101.46 451.00 1.00 2.00 1.00 0.00 1.00 0.00 0.00 0.00 0.00 -9.08 1.00 1220.00 360422709.32 0.00 
155960.75 474743.34 90100.96 736.00 1.00 2.00 1.00 0.00 1.00 0.00 0.00 0.00 0.00 -9.09 1.00 1220.00 360422709.32 0.00 
155960.55 474743.25 90100.81 581.00 1.00 2.00 1.00 0.00 1.00 0.00 0.00 0.00 0.00 -9.10 1.00 1220.00 360422709.32 0.00 
155960.33 474743.25 90099.23 524.00 1.00 2.00 1.00 0.00 1.00 0.00 0.00 0.00 0.00 -9.13 1.00 1220.00 360422709.32 0.00 
155960.11 474743.12 90099.11 615.00 1.00 2.00 1.00 0.00 1.00 0.00 0.00 0.00 0.00 -9.14 1.00 1220.00 360422709.32 0.00 
155957.94 474741.25 90104.10 558.00 1.00 3.00 1.00 0.00 1.00 0.00 0.00 0.00 0.00 -9.16 1.00 1220.00 360422709.32 0.00 
155959.88 474743.00 90099.02 547.00 2.00 3.00 1.00 0.00 1.00 0.00 0.00 0.00 0.00 -9.16 1.00 1220.00 360422709.32 0.00 
155957.77 474741.19 90103.92 451.00 1.00 5.00 1.00 0.00 1.00 0.00 0.00 0.00 0.00 -9.17 1.00 1220.00 360422709.32 0.00 
155958.89 474742.22 90100.84 319.00 2.00 5.00 1.00 0.00 1.00 0.00 0.00 0.00 0.00 -9.17 1.00 1220.00 360422709.32 0.00 
155959.67 474742.88 90098.88 960.00 3.00 5.00 1.00 0.00 1.00 0.00 0.00 0.00 0.00 -9.17 1.00 1220.00 360422709.32 0.00 
155960.59 474743.72 90096.38 305.00 4.00 5.00 1.00 0.00 1.00 0.00 0.00 0.00 0.00 -9.17 1.00 1220.00 360422709.32 0.00 
155958.77 474742.09 90100.54 315.00 1.00 3.00 1.00 0.00 1.00 0.00 0.00 0.00 0.00 -9.17 1.00 1220.00 360422709.32 0.00 
155959.45 474742.72 90098.71 332.00 2.00 3.00 1.00 0.00 1.00 0.00 0.00 0.00 0.00 -9.17 1.00 1220.00 360422709.32 0.00 
155957.50 474741.06 90103.02 634.00 1.00 4.00 1.00 0.00 1.00 0.00 0.00 0.00 0.00 -9.19 1.00 1220.00 360422709.32 0.00 
155958.44 474741.97 90100.54 633.00 2.00 4.00 1.00 0.00 1.00 0.00 0.00 0.00 0.00 -9.19 1.00 1220.00 360422709.32 0.00 
155959.14 474742.56 90098.73 709.00 3.00 4.00 1.00 0.00 1.00 0.00 0.00 0.00 0.00 -9.19 1.00 1220.00 360422709.32 0.00 
155958.27 474741.84 90100.28 1098.00 1.00 2.00 1.00 0.00 1.00 0.00 0.00 0.00 0.00 -9.21 1.00 1220.00 360422709.32 0.00 
155957.47 474741.19 90101.68 603.00 1.00 3.00 1.00 0.00 1.00 0.00 0.00 0.00 0.00 -9.21 1.00 1220.00 360422709.32 0.00 
155958.09 474741.72 90100.04 379.00 2.00 3.00 1.00 0.00 1.00 0.00 0.00 0.00 0.00 -9.21 1.00 1220.00 360422709.32 0.00 
155957.27 474741.03 90101.56 755.00 1.00 4.00 1.00 0.00 1.00 0.00 0.00 0.00 0.00 -9.22 1.00 1220.00 360422709.32 0.00 
155957.86 474741.59 90099.89 627.00 2.00 4.00 1.00 0.00 1.00 0.00 0.00 0.00 0.00 -9.22 1.00 1220.00 360422709.32 0.00 
155958.25 474741.97 90098.91 332.00 3.00 4.00 1.00 0.00 1.00 0.00 0.00 0.00 0.00 -9.22 1.00 1220.00 360422709.32 0.00 
155957.00 474740.91 90101.57 507.00 1.00 3.00 1.00 0.00 1.00 0.00 0.00 0.00 0.00 -9.23 1.00 1220.00 360422709.32 0.00 
155957.59 474741.50 90099.91 546.00 2.00 3.00 1.00 0.00 1.00 0.00 0.00 0.00 0.00 -9.23 1.00 1220.00 360422709.32 0.00 
155957.78 474741.69 90098.70 270.00 1.00 2.00 1.00 0.00 1.00 0.00 0.00 0.00 0.00 -9.25 1.00 1220.00 360422709.32 0.00 
155956.16 474740.31 90102.27 544.00 1.00 3.00 1.00 0.00 1.00 0.00 0.00 0.00 0.00 -9.26 1.00 1220.00 360422709.32 0.00 
155957.62 474741.62 90098.40 526.00 2.00 3.00 1.00 0.00 1.00 0.00 0.00 0.00 0.00 -9.26 1.00 1220.00 360422709.32 0.00 
155955.92 474740.16 90102.15 619.00 1.00 2.00 1.00 0.00 1.00 0.00 0.00 0.00 0.00 -9.27 1.00 1220.00 360422709.32 0.00 
155955.53 474740.25 90098.82 669.00 1.00 2.00 1.00 0.00 1.00 0.00 0.00 0.00 0.00 -9.34 1.00 1220.00 360422709.32 0.00 
155955.23 474740.03 90098.91 325.00 1.00 2.00 1.00 0.00 1.00 0.00 0.00 0.00 0.00 -9.34 1.00 1220.00 360422709.32 0.00 
155960.31 474743.50 90100.93 600.00 1.00 2.00 1.00 0.00 1.00 0.00 0.00 0.00 0.00 -9.11 1.00 1220.00 360422709.32 0.00 
155959.64 474743.31 90099.05 816.00 2.00 3.00 1.00 0.00 1.00 0.00 0.00 0.00 0.00 -9.17 1.00 1220.00 360422709.32 0.00 
155957.80 474741.78 90102.23 564.00 1.00 4.00 1.00 0.00 1.00 0.00 0.00 0.00 0.00 -9.19 1.00 1220.00 360422709.32 0.00 
155958.17 474742.22 90101.24 529.00 2.00 4.00 1.00 0.00 1.00 0.00 0.00 0.00 0.00 -9.19 1.00 1220.00 360422709.32 0.00 
155958.95 474742.88 90099.18 330.00 3.00 4.00 1.00 0.00 1.00 0.00 0.00 0.00 0.00 -9.19 1.00 1220.00 360422709.32 0.00 
155957.59 474741.72 90102.09 553.00 1.00 4.00 1.00 0.00 1.00 0.00 0.00 0.00 0.00 -9.20 1.00 1220.00 360422709.32 0.00 
155958.17 474742.19 90100.60 725.00 2.00 4.00 1.00 0.00 1.00 0.00 0.00 0.00 0.00 -9.20 1.00 1220.00 360422709.32 0.00 
155958.72 474742.66 90099.29 977.00 3.00 4.00 1.00 0.00 1.00 0.00 0.00 0.00 0.00 -9.20 1.00 1220.00 360422709.32 0.00 
155956.97 474741.16 90103.09 267.00 1.00 3.00 1.00 0.00 1.00 0.00 0.00 0.00 0.00 -9.21 1.00 1220.00 360422709.32 0.00 
155957.95 474742.09 90100.44 600.00 2.00 3.00 1.00 0.00 1.00 0.00 0.00 0.00 0.00 -9.21 1.00 1220.00 360422709.32 0.00 
155957.19 474741.47 90101.77 780.00 1.00 3.00 1.00 0.00 1.00 0.00 0.00 0.00 0.00 -9.22 1.00 1220.00 360422709.32 0.00 
155957.36 474741.78 90099.90 923.00 2.00 4.00 1.00 0.00 1.00 0.00 0.00 0.00 0.00 -9.25 1.00 1220.00 360422709.32 0.00 
155957.86 474742.22 90098.59 725.00 3.00 4.00 1.00 0.00 1.00 0.00 0.00 0.00 0.00 -9.25 1.00 1220.00 360422709.32 0.00 
155956.88 474741.47 90099.71 551.00 2.00 3.00 1.00 0.00 1.00 0.00 0.00 0.00 0.00 -9.27 1.00 1220.00 360422709.32 0.00 
155955.59 474740.41 90102.29 296.00 1.00 2.00 1.00 0.00 1.00 0.00 0.00 0.00 0.00 -9.28 1.00 1220.00 360422709.32 0.00 
155960.02 474743.97 90099.30 644.00 1.00 2.00 1.00 0.00 1.00 0.00 0.00 0.00 0.00 -9.14 1.00 1220.00 360422709.33 0.00 
155959.72 474743.78 90099.32 878.00 1.00 2.00 1.00 0.00 1.00 0.00 0.00 0.00 0.00 -9.16 1.00 1220.00 360422709.33 0.00 
155959.48 474743.69 90099.17 638.00 1.00 2.00 1.00 0.00 1.00 0.00 0.00 0.00 0.00 -9.17 1.00 1220.00 360422709.33 0.00 
155958.53 474742.88 90100.99 518.00 1.00 3.00 1.00 0.00 1.00 0.00 0.00 0.00 0.00 -9.17 1.00 1220.00 360422709.33 0.00 
155959.36 474743.59 90098.91 526.00 2.00 3.00 1.00 0.00 1.00 0.00 0.00 0.00 0.00 -9.17 1.00 1220.00 360422709.33 0.00 
155958.25 474742.69 90101.07 417.00 1.00 3.00 1.00 0.00 1.00 0.00 0.00 0.00 0.00 -9.19 1.00 1220.00 360422709.33 0.00 
155958.88 474743.25 90099.34 502.00 2.00 3.00 1.00 0.00 1.00 0.00 0.00 0.00 0.00 -9.19 1.00 1220.00 360422709.33 0.00 
155958.03 474742.56 90100.92 708.00 1.00 3.00 1.00 0.00 1.00 0.00 0.00 0.00 0.00 -9.20 1.00 1220.00 360422709.33 0.00 
155958.72 474743.16 90099.23 818.00 2.00 3.00 1.00 0.00 1.00 0.00 0.00 0.00 0.00 -9.20 1.00 1220.00 360422709.33 0.00 
155957.84 474742.47 90100.77 946.00 1.00 3.00 1.00 0.00 1.00 0.00 0.00 0.00 0.00 -9.21 1.00 1220.00 360422709.33 0.00 
155958.66 474743.25 90098.48 661.00 2.00 3.00 1.00 0.00 1.00 0.00 0.00 0.00 0.00 -9.21 1.00 1220.00 360422709.33 0.00 
155957.11 474741.88 90101.91 276.00 1.00 3.00 1.00 0.00 1.00 0.00 0.00 0.00 0.00 -9.22 1.00 1220.00 360422709.33 0.00 
155958.45 474743.06 90098.39 694.00 2.00 3.00 1.00 0.00 1.00 0.00 0.00 0.00 0.00 -9.22 1.00 1220.00 360422709.33 0.00 
155956.86 474741.75 90101.80 939.00 1.00 2.00 1.00 0.00 1.00 0.00 0.00 0.00 0.00 -9.23 1.00 1220.00 360422709.33 0.00 
155957.28 474742.19 90099.95 305.00 1.00 2.00 1.00 0.00 1.00 0.00 0.00 0.00 0.00 -9.25 1.00 1220.00 360422709.33 0.00 
155957.67 474742.59 90098.22 470.00 1.00 2.00 1.00 0.00 1.00 0.00 0.00 0.00 0.00 -9.26 1.00 1220.00 360422709.33 0.00 
155957.48 474742.50 90098.02 573.00 1.00 2.00 1.00 0.00 1.00 0.00 0.00 0.00 0.00 -9.27 1.00 1220.00 360422709.33 0.00 
155957.39 474742.50 90097.58 550.00 1.00 2.00 1.00 0.00 1.00 0.00 0.00 0.00 0.00 -9.28 1.00 1220.00 360422709.33 0.00 
155960.16 474744.41 90100.00 373.00 1.00 2.00 1.00 0.00 1.00 0.00 0.00 0.00 0.00 -9.13 1.00 1220.00 360422709.34 0.00 
155960.00 474744.34 90099.67 634.00 1.00 2.00 1.00 0.00 1.00 0.00 0.00 0.00 0.00 -9.14 1.00 1220.00 360422709.34 0.00 
155959.80 474744.22 90099.51 851.00 1.00 2.00 1.00 0.00 1.00 0.00 0.00 0.00 0.00 -9.16 1.00 1220.00 360422709.34 0.00 
155959.61 474744.16 90099.34 612.00 1.00 2.00 1.00 0.00 1.00 0.00 0.00 0.00 0.00 -9.16 1.00 1220.00 360422709.34 0.00 
155959.41 474744.12 90099.09 770.00 1.00 2.00 1.00 0.00 1.00 0.00 0.00 0.00 0.00 -9.17 1.00 1220.00 360422709.34 0.00 
155959.00 474743.78 90099.37 314.00 1.00 2.00 1.00 0.00 1.00 0.00 0.00 0.00 0.00 -9.19 1.00 1220.00 360422709.34 0.00 
155958.05 474742.97 90101.16 528.00 1.00 4.00 1.00 0.00 1.00 0.00 0.00 0.00 0.00 -9.20 1.00 1220.00 360422709.34 0.00 
155958.39 474743.31 90100.33 564.00 2.00 4.00 1.00 0.00 1.00 0.00 0.00 0.00 0.00 -9.20 1.00 1220.00 360422709.34 0.00 
155958.80 474743.69 90099.27 511.00 3.00 4.00 1.00 0.00 1.00 0.00 0.00 0.00 0.00 -9.20 1.00 1220.00 360422709.34 0.00 
155957.89 474742.94 90100.90 850.00 1.00 3.00 1.00 0.00 1.00 0.00 0.00 0.00 0.00 -9.21 1.00 1220.00 360422709.34 0.00 
155958.53 474743.50 90099.33 723.00 2.00 3.00 1.00 0.00 1.00 0.00 0.00 0.00 0.00 -9.21 1.00 1220.00 360422709.34 0.00 
155957.55 474742.66 90101.11 658.00 1.00 4.00 1.00 0.00 1.00 0.00 0.00 0.00 0.00 -9.22 1.00 1220.00 360422709.34 0.00 
155958.33 474743.41 90099.18 324.00 2.00 4.00 1.00 0.00 1.00 0.00 0.00 0.00 0.00 -9.22 1.00 1220.00 360422709.34 0.00 
155958.69 474743.75 90098.08 474.00 3.00 4.00 1.00 0.00 1.00 0.00 0.00 0.00 0.00 -9.22 1.00 1220.00 360422709.34 0.00 
155957.00 474742.28 90101.77 398.00 1.00 4.00 1.00 0.00 1.00 0.00 0.00 0.00 0.00 -9.22 1.00 1220.00 360422709.34 0.00 
155957.47 474742.72 90100.57 664.00 2.00 4.00 1.00 0.00 1.00 0.00 0.00 0.00 0.00 -9.22 1.00 1220.00 360422709.34 0.00 
155958.52 474743.59 90097.88 748.00 3.00 4.00 1.00 0.00 1.00 0.00 0.00 0.00 0.00 -9.22 1.00 1220.00 360422709.34 0.00 
155956.75 474742.12 90101.89 716.00 1.00 3.00 1.00 0.00 1.00 0.00 0.00 0.00 0.00 -9.23 1.00 1220.00 360422709.34 0.00 
155957.31 474742.66 90100.28 579.00 2.00 3.00 1.00 0.00 1.00 0.00 0.00 0.00 0.00 -9.23 1.00 1220.00 360422709.34 0.00 
155959.20 474744.41 90098.95 480.00 1.00 2.00 1.00 0.00 1.00 0.00 0.00 0.00 0.00 -9.19 1.00 1220.00 360422709.34 0.00 
155958.05 474743.47 90100.66 376.00 1.00 2.00 1.00 0.00 1.00 0.00 0.00 0.00 0.00 -9.21 1.00 1220.00 360422709.34 0.00 
155958.39 474743.84 90099.14 528.00 1.00 2.00 1.00 0.00 1.00 0.00 0.00 0.00 0.00 -9.22 1.00 1220.00 360422709.34 0.00 
155957.22 474742.88 90101.45 429.00 1.00 2.00 1.00 0.00 1.00 0.00 0.00 0.00 0.00 -9.22 1.00 1220.00 360422709.34 0.00 
155956.41 474742.34 90102.05 537.00 1.00 2.00 1.00 0.00 1.00 0.00 0.00 0.00 0.00 -9.25 1.00 1220.00 360422709.34 0.00 
155965.23 474714.47 90100.11 321.00 1.00 2.00 0.00 0.00 1.00 0.00 0.00 0.00 0.00 -8.88 1.00 1220.00 360422721.55 0.00 
155965.41 474714.38 90100.41 830.00 1.00 2.00 0.00 0.00 1.00 0.00 0.00 0.00 0.00 -8.87 1.00 1220.00 360422721.55 0.00 
155961.69 474717.00 90099.09 262.00 1.00 3.00 0.00 0.00 1.00 0.00 0.00 0.00 0.00 -9.02 1.00 1220.00 360422721.56 0.00 
155962.28 474716.47 90097.61 539.00 2.00 3.00 0.00 0.00 1.00 0.00 0.00 0.00 0.00 -9.02 1.00 1220.00 360422721.56 0.00 
155962.47 474716.44 90097.80 385.00 1.00 2.00 0.00 0.00 1.00 0.00 0.00 0.00 0.00 -9.02 1.00 1220.00 360422721.56 0.00 
155962.69 474716.28 90097.92 607.00 1.00 2.00 0.00 0.00 1.00 0.00 0.00 0.00 0.00 -9.01 1.00 1220.00 360422721.56 0.00 
155962.84 474716.22 90098.28 391.00 1.00 2.00 0.00 0.00 1.00 0.00 0.00 0.00 0.00 -9.00 1.00 1220.00 360422721.56 0.00 
155962.81 474716.38 90099.16 611.00 1.00 2.00 0.00 0.00 1.00 0.00 0.00 0.00 0.00 -8.98 1.00 1220.00 360422721.56 0.00 
155965.17 474714.91 90099.85 538.00 1.00 2.00 0.00 0.00 1.00 0.00 0.00 0.00 0.00 -8.88 1.00 1220.00 360422721.56 0.00 
155965.39 474714.81 90100.04 649.00 1.00 2.00 0.00 0.00 1.00 0.00 0.00 0.00 0.00 -8.87 1.00 1220.00 360422721.56 0.00 
155965.59 474714.72 90100.30 891.00 1.00 2.00 0.00 0.00 1.00 0.00 0.00 0.00 0.00 -8.87 1.00 1220.00 360422721.56 0.00 
155965.19 474715.16 90102.06 353.00 1.00 3.00 0.00 0.00 1.00 0.00 0.00 0.00 0.00 -8.85 1.00 1220.00 360422721.56 0.00 
155961.98 474717.31 90098.62 941.00 1.00 2.00 0.00 0.00 1.00 0.00 0.00 0.00 0.00 -9.02 1.00 1220.00 360422721.57 0.00 
155962.70 474716.62 90097.47 767.00 1.00 2.00 0.00 0.00 1.00 0.00 0.00 0.00 0.00 -9.01 1.00 1220.00 360422721.57 0.00 
155962.88 474716.59 90097.72 791.00 1.00 2.00 0.00 0.00 1.00 0.00 0.00 0.00 0.00 -9.01 1.00 1220.00 360422721.57 0.00 
155965.34 474715.28 90100.21 525.00 1.00 2.00 0.00 0.00 1.00 0.00 0.00 0.00 0.00 -8.87 1.00 1220.00 360422721.57 0.00 
155965.58 474715.19 90100.27 593.00 1.00 2.00 0.00 0.00 1.00 0.00 0.00 0.00 0.00 -8.87 1.00 1220.00 360422721.57 0.00 
155965.95 474714.91 90100.10 780.00 2.00 3.00 0.00 0.00 1.00 0.00 0.00 0.00 0.00 -8.85 1.00 1220.00 360422721.57 0.00 
155965.52 474715.38 90101.88 546.00 1.00 3.00 0.00 0.00 1.00 0.00 0.00 0.00 0.00 -8.84 1.00 1220.00 360422721.57 0.00 
155961.05 474718.00 90095.38 689.00 1.00 2.00 0.00 0.00 1.00 0.00 0.00 0.00 0.00 -9.13 1.00 1220.00 360422721.57 0.00 
155961.45 474717.97 90098.14 327.00 1.00 3.00 0.00 0.00 1.00 0.00 0.00 0.00 0.00 -9.06 1.00 1220.00 360422721.57 0.00 
155961.95 474717.53 90096.82 553.00 2.00 3.00 0.00 0.00 1.00 0.00 0.00 0.00 0.00 -9.06 1.00 1220.00 360422721.57 0.00 
155961.80 474717.78 90098.02 290.00 1.00 3.00 0.00 0.00 1.00 0.00 0.00 0.00 0.00 -9.05 1.00 1220.00 360422721.57 0.00 
155962.14 474717.44 90097.10 521.00 2.00 3.00 0.00 0.00 1.00 0.00 0.00 0.00 0.00 -9.05 1.00 1220.00 360422721.57 0.00 
155961.86 474717.66 90098.41 318.00 1.00 2.00 0.00 0.00 1.00 0.00 0.00 0.00 0.00 -9.02 1.00 1220.00 360422721.57 0.00 
155962.25 474717.44 90098.16 842.00 1.00 2.00 0.00 0.00 1.00 0.00 0.00 0.00 0.00 -9.02 1.00 1220.00 360422721.57 0.00 
155962.50 474717.25 90098.21 595.00 1.00 2.00 0.00 0.00 1.00 0.00 0.00 0.00 0.00 -9.01 1.00 1220.00 360422721.57 0.00 
155963.08 474716.88 90097.58 912.00 1.00 2.00 0.00 0.00 1.00 0.00 0.00 0.00 0.00 -9.00 1.00 1220.00 360422721.57 0.00 
155963.27 474716.78 90097.73 666.00 1.00 2.00 0.00 0.00 1.00 0.00 0.00 0.00 0.00 -9.00 1.00 1220.00 360422721.57 0.00 
155963.36 474716.78 90098.43 1058.00 1.00 2.00 0.00 0.00 1.00 0.00 0.00 0.00 0.00 -8.98 1.00 1220.00 360422721.57 0.00 
155963.58 474716.66 90098.47 650.00 1.00 2.00 0.00 0.00 1.00 0.00 0.00 0.00 0.00 -8.97 1.00 1220.00 360422721.57 0.00 
155963.64 474716.75 90099.20 283.00 1.00 2.00 0.00 0.00 1.00 0.00 0.00 0.00 0.00 -8.96 1.00 1220.00 360422721.57 0.00 
155964.80 474715.81 90097.70 377.00 1.00 2.00 0.00 0.00 1.00 0.00 0.00 0.00 0.00 -8.93 1.00 1220.00 360422721.57 0.00 
155964.98 474715.78 90098.63 292.00 1.00 2.00 0.00 0.00 1.00 0.00 0.00 0.00 0.00 -8.92 1.00 1220.00 360422721.57 0.00 
155962.92 474717.75 90104.85 526.00 1.00 4.00 0.00 0.00 1.00 0.00 0.00 0.00 0.00 -8.90 1.00 1220.00 360422721.57 0.00 
155964.95 474715.91 90099.58 422.00 2.00 4.00 0.00 0.00 1.00 0.00 0.00 0.00 0.00 -8.90 1.00 1220.00 360422721.57 0.00 
155965.17 474715.72 90098.97 360.00 3.00 4.00 0.00 0.00 1.00 0.00 0.00 0.00 0.00 -8.90 1.00 1220.00 360422721.57 0.00 
155965.39 474715.66 90099.10 834.00 1.00 3.00 0.00 0.00 1.00 0.00 0.00 0.00 0.00 -8.88 1.00 1220.00 360422721.57 0.00 
155965.83 474715.22 90098.02 539.00 2.00 3.00 0.00 0.00 1.00 0.00 0.00 0.00 0.00 -8.88 1.00 1220.00 360422721.57 0.00 
155965.47 474715.75 90100.53 529.00 1.00 2.00 0.00 0.00 1.00 0.00 0.00 0.00 0.00 -8.87 1.00 1220.00 360422721.57 0.00 
155965.98 474715.31 90099.92 615.00 1.00 2.00 0.00 0.00 1.00 0.00 0.00 0.00 0.00 -8.85 1.00 1220.00 360422721.57 0.00 
155965.73 474715.72 90101.45 920.00 1.00 3.00 0.00 0.00 1.00 0.00 0.00 0.00 0.00 -8.84 1.00 1220.00 360422721.57 0.00 
155966.16 474715.25 90100.25 593.00 2.00 3.00 0.00 0.00 1.00 0.00 0.00 0.00 0.00 -8.84 1.00 1220.00 360422721.57 0.00 
155966.12 474715.44 90101.17 617.00 1.00 2.00 0.00 0.00 1.00 0.00 0.00 0.00 0.00 -8.83 1.00 1220.00 360422721.57 0.00 
155961.22 474718.22 90094.52 274.00 1.00 2.00 0.00 0.00 1.00 0.00 0.00 0.00 0.00 -9.13 1.00 1220.00 360422721.58 0.00 
155961.23 474718.25 90095.16 661.00 1.00 2.00 0.00 0.00 1.00 0.00 0.00 0.00 0.00 -9.11 1.00 1220.00 360422721.58 0.00 
155961.48 474718.09 90095.14 542.00 1.00 3.00 0.00 0.00 1.00 0.00 0.00 0.00 0.00 -9.10 1.00 1220.00 360422721.58 0.00 
155961.84 474717.78 90094.35 303.00 2.00 3.00 0.00 0.00 1.00 0.00 0.00 0.00 0.00 -9.10 1.00 1220.00 360422721.58 0.00 
155961.89 474717.81 90094.86 536.00 1.00 2.00 0.00 0.00 1.00 0.00 0.00 0.00 0.00 -9.09 1.00 1220.00 360422721.58 0.00 
155961.95 474718.06 90097.81 745.00 1.00 3.00 0.00 0.00 1.00 0.00 0.00 0.00 0.00 -9.05 1.00 1220.00 360422721.58 0.00 
155962.31 474717.72 90096.98 626.00 2.00 3.00 0.00 0.00 1.00 0.00 0.00 0.00 0.00 -9.05 1.00 1220.00 360422721.58 0.00 
155962.58 474717.59 90097.00 367.00 1.00 2.00 0.00 0.00 1.00 0.00 0.00 0.00 0.00 -9.02 1.00 1220.00 360422721.58 0.00 
155962.53 474717.69 90097.87 747.00 1.00 2.00 0.00 0.00 1.00 0.00 0.00 0.00 0.00 -9.01 1.00 1220.00 360422721.58 0.00 
155962.81 474717.50 90097.87 290.00 1.00 2.00 0.00 0.00 1.00 0.00 0.00 0.00 0.00 -9.01 1.00 1220.00 360422721.58 0.00 
155962.62 474717.81 90099.18 664.00 1.00 3.00 0.00 0.00 1.00 0.00 0.00 0.00 0.00 -9.00 1.00 1220.00 360422721.58 0.00 
155963.22 474717.25 90097.62 564.00 2.00 3.00 0.00 0.00 1.00 0.00 0.00 0.00 0.00 -9.00 1.00 1220.00 360422721.58 0.00 
155963.44 474717.12 90097.80 479.00 1.00 2.00 0.00 0.00 1.00 0.00 0.00 0.00 0.00 -8.98 1.00 1220.00 360422721.58 0.00 
155963.59 474717.06 90098.18 1081.00 1.00 2.00 0.00 0.00 1.00 0.00 0.00 0.00 0.00 -8.97 1.00 1220.00 360422721.58 0.00 
155963.61 474717.16 90098.89 720.00 1.00 2.00 0.00 0.00 1.00 0.00 0.00 0.00 0.00 -8.96 1.00 1220.00 360422721.58 0.00 
155963.62 474717.22 90099.67 530.00 1.00 2.00 0.00 0.00 1.00 0.00 0.00 0.00 0.00 -8.95 1.00 1220.00 360422721.58 0.00 
155964.97 474716.19 90097.86 702.00 1.00 2.00 0.00 0.00 1.00 0.00 0.00 0.00 0.00 -8.92 1.00 1220.00 360422721.58 0.00 
155962.80 474718.22 90104.16 321.00 1.00 3.00 0.00 0.00 1.00 0.00 0.00 0.00 0.00 -8.92 1.00 1220.00 360422721.58 0.00 
155965.19 474716.06 90097.93 561.00 2.00 3.00 0.00 0.00 1.00 0.00 0.00 0.00 0.00 -8.92 1.00 1220.00 360422721.58 0.00 
155963.00 474718.09 90104.30 541.00 1.00 4.00 0.00 0.00 1.00 0.00 0.00 0.00 0.00 -8.90 1.00 1220.00 360422721.58 0.00 
155963.50 474717.69 90103.05 457.00 2.00 4.00 0.00 0.00 1.00 0.00 0.00 0.00 0.00 -8.90 1.00 1220.00 360422721.58 0.00 
155965.39 474715.94 90098.09 373.00 3.00 4.00 0.00 0.00 1.00 0.00 0.00 0.00 0.00 -8.90 1.00 1220.00 360422721.58 0.00 
155963.20 474718.00 90104.57 754.00 1.00 3.00 0.00 0.00 1.00 0.00 0.00 0.00 0.00 -8.88 1.00 1220.00 360422721.58 0.00 
155965.55 474715.84 90098.45 433.00 2.00 3.00 0.00 0.00 1.00 0.00 0.00 0.00 0.00 -8.88 1.00 1220.00 360422721.58 0.00 
155963.50 474717.81 90104.42 687.00 1.00 3.00 0.00 0.00 1.00 0.00 0.00 0.00 0.00 -8.88 1.00 1220.00 360422721.58 0.00 
155965.47 474716.09 90099.45 512.00 2.00 3.00 0.00 0.00 1.00 0.00 0.00 0.00 0.00 -8.88 1.00 1220.00 360422721.58 0.00 
155965.77 474715.94 90099.46 530.00 1.00 3.00 0.00 0.00 1.00 0.00 0.00 0.00 0.00 -8.87 1.00 1220.00 360422721.58 0.00 
155966.09 474715.62 90098.61 585.00 2.00 3.00 0.00 0.00 1.00 0.00 0.00 0.00 0.00 -8.87 1.00 1220.00 360422721.58 0.00 
155966.06 474715.69 90099.51 910.00 1.00 2.00 0.00 0.00 1.00 0.00 0.00 0.00 0.00 -8.85 1.00 1220.00 360422721.58 0.00 
155965.84 474716.00 90100.88 1113.00 1.00 3.00 0.00 0.00 1.00 0.00 0.00 0.00 0.00 -8.84 1.00 1220.00 360422721.58 0.00 
155966.25 474715.59 90099.71 667.00 2.00 3.00 0.00 0.00 1.00 0.00 0.00 0.00 0.00 -8.84 1.00 1220.00 360422721.58 0.00 
155966.00 474715.84 90101.09 672.00 1.00 2.00 0.00 0.00 1.00 0.00 0.00 0.00 0.00 -8.84 1.00 1220.00 360422721.58 0.00 
155966.14 474715.84 90101.51 553.00 1.00 3.00 0.00 0.00 1.00 0.00 0.00 0.00 0.00 -8.83 1.00 1220.00 360422721.58 0.00 
155966.47 474715.56 90100.64 439.00 2.00 3.00 0.00 0.00 1.00 0.00 0.00 0.00 0.00 -8.83 1.00 1220.00 360422721.58 0.00 
155969.34 474714.03 90102.46 525.00 1.00 2.00 0.00 0.00 1.00 0.00 0.00 0.00 0.00 -8.68 1.00 1220.00 360422721.58 0.00 
155971.36 474712.75 90101.84 290.00 1.00 2.00 0.00 0.00 1.00 0.00 0.00 0.00 0.00 -8.60 1.00 1220.00 360422721.58 0.00 
155961.09 474718.91 90096.07 664.00 1.00 2.00 0.00 0.00 1.00 0.00 0.00 0.00 0.00 -9.10 1.00 1220.00 360422721.59 0.00 
155961.67 474718.56 90095.51 664.00 1.00 2.00 0.00 0.00 1.00 0.00 0.00 0.00 0.00 -9.09 1.00 1220.00 360422721.59 0.00 
155963.88 474717.31 90097.92 896.00 1.00 2.00 0.00 0.00 1.00 0.00 0.00 0.00 0.00 -8.97 1.00 1220.00 360422721.59 0.00 
155962.81 474718.66 90103.75 614.00 1.00 4.00 0.00 0.00 1.00 0.00 0.00 0.00 0.00 -8.92 1.00 1220.00 360422721.59 0.00 
155963.17 474718.38 90102.88 276.00 2.00 4.00 0.00 0.00 1.00 0.00 0.00 0.00 0.00 -8.92 1.00 1220.00 360422721.59 0.00 
155965.14 474716.53 90097.64 701.00 3.00 4.00 0.00 0.00 1.00 0.00 0.00 0.00 0.00 -8.92 1.00 1220.00 360422721.59 0.00 
155962.97 474718.56 90103.98 459.00 1.00 3.00 0.00 0.00 1.00 0.00 0.00 0.00 0.00 -8.92 1.00 1220.00 360422721.59 0.00 
155965.34 474716.44 90097.77 524.00 2.00 3.00 0.00 0.00 1.00 0.00 0.00 0.00 0.00 -8.92 1.00 1220.00 360422721.59 0.00 
155963.39 474718.34 90104.41 901.00 1.00 4.00 0.00 0.00 1.00 0.00 0.00 0.00 0.00 -8.88 1.00 1220.00 360422721.59 0.00 
155963.81 474717.91 90103.27 535.00 2.00 4.00 0.00 0.00 1.00 0.00 0.00 0.00 0.00 -8.88 1.00 1220.00 360422721.59 0.00 
155965.88 474716.22 90099.45 798.00 2.00 3.00 0.00 0.00 1.00 0.00 0.00 0.00 0.00 -8.87 1.00 1220.00 360422721.59 0.00 
155966.20 474716.06 90099.34 969.00 2.00 3.00 0.00 0.00 1.00 0.00 0.00 0.00 0.00 -8.85 1.00 1220.00 360422721.59 0.00 
155966.08 474716.22 90100.40 1232.00 1.00 2.00 0.00 0.00 1.00 0.00 0.00 0.00 0.00 -8.84 1.00 1220.00 360422721.59 0.00 
155966.38 474716.06 90100.40 655.00 1.00 2.00 0.00 0.00 1.00 0.00 0.00 0.00 0.00 -8.83 1.00 1220.00 360422721.59 0.00 
155966.67 474715.88 90100.34 531.00 1.00 2.00 0.00 0.00 1.00 0.00 0.00 0.00 0.00 -8.81 1.00 1220.00 360422721.59 0.00 
155969.42 474714.44 90102.30 657.00 1.00 2.00 0.00 0.00 1.00 0.00 0.00 0.00 0.00 -8.68 1.00 1220.00 360422721.59 0.00 
155970.92 474713.66 90102.95 312.00 1.00 3.00 0.00 0.00 1.00 0.00 0.00 0.00 0.00 -8.62 1.00 1220.00 360422721.59 0.00 
155971.88 474712.78 90100.35 551.00 2.00 3.00 0.00 0.00 1.00 0.00 0.00 0.00 0.00 -8.62 1.00 1220.00 360422721.59 0.00 
155971.42 474713.22 90102.26 489.00 1.00 3.00 0.00 0.00 1.00 0.00 0.00 0.00 0.00 -8.60 1.00 1220.00 360422721.59 0.00 
155971.80 474712.91 90101.32 299.00 2.00 3.00 0.00 0.00 1.00 0.00 0.00 0.00 0.00 -8.60 1.00 1220.00 360422721.59 0.00 
155961.14 474719.16 90094.45 324.00 1.00 2.00 0.00 0.00 1.00 0.00 0.00 0.00 0.00 -9.13 1.00 1220.00 360422721.59 0.00 
155961.39 474719.06 90094.56 618.00 1.00 2.00 0.00 0.00 1.00 0.00 0.00 0.00 0.00 -9.11 1.00 1220.00 360422721.59 0.00 
155961.33 474719.12 90095.43 458.00 1.00 2.00 0.00 0.00 1.00 0.00 0.00 0.00 0.00 -9.10 1.00 1220.00 360422721.59 0.00 
155961.56 474719.00 90095.59 532.00 1.00 3.00 0.00 0.00 1.00 0.00 0.00 0.00 0.00 -9.09 1.00 1220.00 360422721.59 0.00 
155961.89 474718.69 90094.62 881.00 2.00 3.00 0.00 0.00 1.00 0.00 0.00 0.00 0.00 -9.09 1.00 1220.00 360422721.59 0.00 
155961.42 474719.22 90096.77 566.00 1.00 3.00 0.00 0.00 1.00 0.00 0.00 0.00 0.00 -9.08 1.00 1220.00 360422721.59 0.00 
155961.78 474718.84 90095.66 696.00 2.00 3.00 0.00 0.00 1.00 0.00 0.00 0.00 0.00 -9.08 1.00 1220.00 360422721.59 0.00 
155961.61 474719.12 90096.95 707.00 1.00 2.00 0.00 0.00 1.00 0.00 0.00 0.00 0.00 -9.08 1.00 1220.00 360422721.59 0.00 
155961.86 474718.94 90096.96 377.00 1.00 4.00 0.00 0.00 1.00 0.00 0.00 0.00 0.00 -9.06 1.00 1220.00 360422721.59 0.00 
155962.36 474718.50 90095.70 569.00 2.00 4.00 0.00 0.00 1.00 0.00 0.00 0.00 0.00 -9.06 1.00 1220.00 360422721.59 0.00 
155962.95 474717.97 90094.12 405.00 3.00 4.00 0.00 0.00 1.00 0.00 0.00 0.00 0.00 -9.06 1.00 1220.00 360422721.59 0.00 
155962.16 474718.84 90097.80 292.00 1.00 3.00 0.00 0.00 1.00 0.00 0.00 0.00 0.00 -9.02 1.00 1220.00 360422721.59 0.00 
155962.59 474718.47 90096.74 348.00 2.00 3.00 0.00 0.00 1.00 0.00 0.00 0.00 0.00 -9.02 1.00 1220.00 360422721.59 0.00 
155962.39 474718.81 90098.05 689.00 1.00 2.00 0.00 0.00 1.00 0.00 0.00 0.00 0.00 -9.02 1.00 1220.00 360422721.59 0.00 
155962.64 474718.72 90098.21 668.00 1.00 3.00 0.00 0.00 1.00 0.00 0.00 0.00 0.00 -9.01 1.00 1220.00 360422721.59 0.00 
155963.25 474718.12 90097.28 1063.00 1.00 2.00 0.00 0.00 1.00 0.00 0.00 0.00 0.00 -9.00 1.00 1220.00 360422721.59 0.00 
155963.45 474718.00 90097.42 524.00 1.00 3.00 0.00 0.00 1.00 0.00 0.00 0.00 0.00 -8.98 1.00 1220.00 360422721.59 0.00 
155963.94 474717.56 90096.31 263.00 2.00 3.00 0.00 0.00 1.00 0.00 0.00 0.00 0.00 -8.98 1.00 1220.00 360422721.59 0.00 
155963.73 474717.88 90097.47 323.00 1.00 3.00 0.00 0.00 1.00 0.00 0.00 0.00 0.00 -8.98 1.00 1220.00 360422721.59 0.00 
155964.06 474717.53 90096.57 532.00 2.00 3.00 0.00 0.00 1.00 0.00 0.00 0.00 0.00 -8.98 1.00 1220.00 360422721.59 0.00 
155963.97 474717.72 90097.59 1293.00 1.00 2.00 0.00 0.00 1.00 0.00 0.00 0.00 0.00 -8.97 1.00 1220.00 360422721.59 0.00 
155963.19 474718.75 90102.71 453.00 1.00 2.00 0.00 0.00 1.00 0.00 0.00 0.00 0.00 -8.92 1.00 1220.00 360422721.59 0.00 
155963.00 474719.00 90103.99 591.00 1.00 3.00 0.00 0.00 1.00 0.00 0.00 0.00 0.00 -8.92 1.00 1220.00 360422721.59 0.00 
155965.44 474716.81 90097.65 895.00 2.00 3.00 0.00 0.00 1.00 0.00 0.00 0.00 0.00 -8.92 1.00 1220.00 360422721.59 0.00 
155963.25 474718.84 90104.05 568.00 1.00 5.00 0.00 0.00 1.00 0.00 0.00 0.00 0.00 -8.90 1.00 1220.00 360422721.59 0.00 
155963.70 474718.44 90102.82 587.00 2.00 5.00 0.00 0.00 1.00 0.00 0.00 0.00 0.00 -8.90 1.00 1220.00 360422721.59 0.00 
155963.94 474718.28 90102.26 629.00 3.00 5.00 0.00 0.00 1.00 0.00 0.00 0.00 0.00 -8.90 1.00 1220.00 360422721.59 0.00 
155965.59 474716.75 90097.93 524.00 4.00 5.00 0.00 0.00 1.00 0.00 0.00 0.00 0.00 -8.90 1.00 1220.00 360422721.59 0.00 
155963.45 474718.75 90104.25 595.00 1.00 3.00 0.00 0.00 1.00 0.00 0.00 0.00 0.00 -8.88 1.00 1220.00 360422721.59 0.00 
155963.84 474718.41 90103.30 720.00 2.00 3.00 0.00 0.00 1.00 0.00 0.00 0.00 0.00 -8.88 1.00 1220.00 360422721.59 0.00 
155963.61 474718.69 90104.60 626.00 1.00 4.00 0.00 0.00 1.00 0.00 0.00 0.00 0.00 -8.87 1.00 1220.00 360422721.59 0.00 
155964.06 474718.28 90103.27 398.00 2.00 4.00 0.00 0.00 1.00 0.00 0.00 0.00 0.00 -8.87 1.00 1220.00 360422721.59 0.00 
155965.81 474716.72 90098.80 278.00 3.00 4.00 0.00 0.00 1.00 0.00 0.00 0.00 0.00 -8.87 1.00 1220.00 360422721.59 0.00 
155963.77 474718.62 90104.87 670.00 1.00 3.00 0.00 0.00 1.00 0.00 0.00 0.00 0.00 -8.87 1.00 1220.00 360422721.59 0.00 
155965.64 474716.97 90100.05 445.00 2.00 3.00 0.00 0.00 1.00 0.00 0.00 0.00 0.00 -8.87 1.00 1220.00 360422721.59 0.00 
155963.97 474718.50 90104.98 596.00 1.00 3.00 0.00 0.00 1.00 0.00 0.00 0.00 0.00 -8.85 1.00 1220.00 360422721.59 0.00 
155966.41 474716.41 90099.49 917.00 1.00 2.00 0.00 0.00 1.00 0.00 0.00 0.00 0.00 -8.84 1.00 1220.00 360422721.59 0.00 
155964.19 474718.62 90106.90 514.00 1.00 3.00 0.00 0.00 1.00 0.00 0.00 0.00 0.00 -8.81 1.00 1220.00 360422721.59 0.00 
155964.55 474718.31 90105.98 374.00 2.00 3.00 0.00 0.00 1.00 0.00 0.00 0.00 0.00 -8.81 1.00 1220.00 360422721.59 0.00 
155964.23 474718.69 90107.51 258.00 1.00 3.00 0.00 0.00 1.00 0.00 0.00 0.00 0.00 -8.80 1.00 1220.00 360422721.59 0.00 
155963.98 474718.97 90108.79 364.00 1.00 3.00 0.00 0.00 1.00 0.00 0.00 0.00 0.00 -8.78 1.00 1220.00 360422721.59 0.00 
155966.84 474716.34 90101.40 515.00 2.00 3.00 0.00 0.00 1.00 0.00 0.00 0.00 0.00 -8.78 1.00 1220.00 360422721.59 0.00 
155965.22 474718.00 90107.03 600.00 1.00 2.00 0.00 0.00 1.00 0.00 0.00 0.00 0.00 -8.77 1.00 1220.00 360422721.59 0.00 
155969.88 474714.41 90099.73 409.00 1.00 2.00 0.00 0.00 1.00 0.00 0.00 0.00 0.00 -8.69 1.00 1220.00 360422721.59 0.00 
155967.52 474716.53 90106.43 292.00 1.00 3.00 0.00 0.00 1.00 0.00 0.00 0.00 0.00 -8.69 1.00 1220.00 360422721.59 0.00 
155970.09 474714.34 90099.94 461.00 2.00 3.00 0.00 0.00 1.00 0.00 0.00 0.00 0.00 -8.69 1.00 1220.00 360422721.59 0.00 
155970.98 474714.03 90102.84 545.00 1.00 3.00 0.00 0.00 1.00 0.00 0.00 0.00 0.00 -8.60 1.00 1220.00 360422721.59 0.00 
155971.22 474713.91 90102.91 383.00 1.00 4.00 0.00 0.00 1.00 0.00 0.00 0.00 0.00 -8.59 1.00 1220.00 360422721.59 0.00 
155971.58 474713.50 90101.87 805.00 2.00 4.00 0.00 0.00 1.00 0.00 0.00 0.00 0.00 -8.59 1.00 1220.00 360422721.59 0.00 
155961.61 474719.34 90094.16 416.00 1.00 2.00 0.00 0.00 1.00 0.00 0.00 0.00 0.00 -9.11 1.00 1220.00 360422721.60 0.00 
155961.75 474719.22 90094.35 606.00 1.00 2.00 0.00 0.00 1.00 0.00 0.00 0.00 0.00 -9.10 1.00 1220.00 360422721.60 0.00 
155961.39 474719.66 90096.24 689.00 1.00 3.00 0.00 0.00 1.00 0.00 0.00 0.00 0.00 -9.09 1.00 1220.00 360422721.60 0.00 
155962.06 474719.03 90094.37 813.00 2.00 3.00 0.00 0.00 1.00 0.00 0.00 0.00 0.00 -9.09 1.00 1220.00 360422721.60 0.00 
155961.84 474719.47 90096.64 843.00 1.00 2.00 0.00 0.00 1.00 0.00 0.00 0.00 0.00 -9.06 1.00 1220.00 360422721.60 0.00 
155962.47 474718.91 90095.67 746.00 1.00 3.00 0.00 0.00 1.00 0.00 0.00 0.00 0.00 -9.06 1.00 1220.00 360422721.60 0.00 
155963.06 474718.38 90094.05 595.00 2.00 3.00 0.00 0.00 1.00 0.00 0.00 0.00 0.00 -9.06 1.00 1220.00 360422721.60 0.00 
155962.66 474718.81 90095.93 315.00 1.00 2.00 0.00 0.00 1.00 0.00 0.00 0.00 0.00 -9.05 1.00 1220.00 360422721.60 0.00 
155962.84 474718.72 90096.16 274.00 1.00 2.00 0.00 0.00 1.00 0.00 0.00 0.00 0.00 -9.02 1.00 1220.00 360422721.60 0.00 
155962.55 474719.09 90097.79 435.00 1.00 2.00 0.00 0.00 1.00 0.00 0.00 0.00 0.00 -9.02 1.00 1220.00 360422721.60 0.00 
155962.73 474719.00 90097.86 1036.00 1.00 2.00 0.00 0.00 1.00 0.00 0.00 0.00 0.00 -9.01 1.00 1220.00 360422721.60 0.00 
155963.22 474718.62 90097.38 577.00 1.00 2.00 0.00 0.00 1.00 0.00 0.00 0.00 0.00 -9.00 1.00 1220.00 360422721.60 0.00 
155963.64 474718.34 90097.16 1289.00 1.00 2.00 0.00 0.00 1.00 0.00 0.00 0.00 0.00 -8.98 1.00 1220.00 360422721.60 0.00 
155960.94 474720.97 90105.71 474.00 1.00 2.00 0.00 0.00 1.00 0.00 0.00 0.00 0.00 -8.97 1.00 1220.00 360422721.60 0.00 
155964.38 474717.91 90097.52 371.00 1.00 2.00 0.00 0.00 1.00 0.00 0.00 0.00 0.00 -8.95 1.00 1220.00 360422721.60 0.00 
155962.44 474719.75 90103.33 409.00 1.00 3.00 0.00 0.00 1.00 0.00 0.00 0.00 0.00 -8.93 1.00 1220.00 360422721.60 0.00 
155964.59 474717.81 90097.70 423.00 2.00 3.00 0.00 0.00 1.00 0.00 0.00 0.00 0.00 -8.93 1.00 1220.00 360422721.60 0.00 
155964.75 474717.78 90097.93 261.00 1.00 2.00 0.00 0.00 1.00 0.00 0.00 0.00 0.00 -8.93 1.00 1220.00 360422721.60 0.00 
155963.16 474719.38 90103.72 420.00 1.00 3.00 0.00 0.00 1.00 0.00 0.00 0.00 0.00 -8.90 1.00 1220.00 360422721.60 0.00 
155963.55 474718.97 90102.76 396.00 2.00 3.00 0.00 0.00 1.00 0.00 0.00 0.00 0.00 -8.90 1.00 1220.00 360422721.60 0.00 
155965.75 474717.09 90097.77 856.00 2.00 3.00 0.00 0.00 1.00 0.00 0.00 0.00 0.00 -8.88 1.00 1220.00 360422721.60 0.00 
155963.61 474719.06 90104.02 1127.00 1.00 3.00 0.00 0.00 1.00 0.00 0.00 0.00 0.00 -8.88 1.00 1220.00 360422721.60 0.00 
155963.81 474719.03 90104.23 561.00 1.00 2.00 0.00 0.00 1.00 0.00 0.00 0.00 0.00 -8.87 1.00 1220.00 360422721.60 0.00 
155965.69 474717.50 90100.31 675.00 1.00 2.00 0.00 0.00 1.00 0.00 0.00 0.00 0.00 -8.85 1.00 1220.00 360422721.60 0.00 
155965.59 474717.59 90101.16 542.00 1.00 3.00 0.00 0.00 1.00 0.00 0.00 0.00 0.00 -8.85 1.00 1220.00 360422721.60 0.00 
155965.97 474717.22 90100.10 756.00 2.00 3.00 0.00 0.00 1.00 0.00 0.00 0.00 0.00 -8.85 1.00 1220.00 360422721.60 0.00 
155964.03 474719.12 90106.02 558.00 1.00 4.00 0.00 0.00 1.00 0.00 0.00 0.00 0.00 -8.84 1.00 1220.00 360422721.60 0.00 
155965.92 474717.34 90100.92 783.00 2.00 4.00 0.00 0.00 1.00 0.00 0.00 0.00 0.00 -8.84 1.00 1220.00 360422721.60 0.00 
155966.62 474716.72 90099.24 822.00 3.00 4.00 0.00 0.00 1.00 0.00 0.00 0.00 0.00 -8.84 1.00 1220.00 360422721.60 0.00 
155963.70 474719.50 90107.61 561.00 1.00 3.00 0.00 0.00 1.00 0.00 0.00 0.00 0.00 -8.83 1.00 1220.00 360422721.60 0.00 
155964.27 474718.97 90106.16 396.00 2.00 3.00 0.00 0.00 1.00 0.00 0.00 0.00 0.00 -8.83 1.00 1220.00 360422721.60 0.00 
155964.39 474718.88 90106.47 903.00 1.00 3.00 0.00 0.00 1.00 0.00 0.00 0.00 0.00 -8.81 1.00 1220.00 360422721.60 0.00 
155964.14 474719.31 90108.70 641.00 1.00 5.00 0.00 0.00 1.00 0.00 0.00 0.00 0.00 -8.78 1.00 1220.00 360422721.60 0.00 
155967.06 474716.72 90101.18 486.00 3.00 5.00 0.00 0.00 1.00 0.00 0.00 0.00 0.00 -8.78 1.00 1220.00 360422721.60 0.00 
155964.62 474718.97 90108.09 637.00 1.00 4.00 0.00 0.00 1.00 0.00 0.00 0.00 0.00 -8.77 1.00 1220.00 360422721.60 0.00 
155965.42 474718.31 90106.86 774.00 1.00 3.00 0.00 0.00 1.00 0.00 0.00 0.00 0.00 -8.76 1.00 1220.00 360422721.60 0.00 
155965.69 474718.12 90106.78 594.00 1.00 2.00 0.00 0.00 1.00 0.00 0.00 0.00 0.00 -8.76 1.00 1220.00 360422721.60 0.00 
155968.34 474716.00 90100.91 624.00 1.00 2.00 0.00 0.00 1.00 0.00 0.00 0.00 0.00 -8.75 1.00 1220.00 360422721.60 0.00 
155969.83 474714.78 90099.32 538.00 1.00 2.00 0.00 0.00 1.00 0.00 0.00 0.00 0.00 -8.71 1.00 1220.00 360422721.60 0.00 
155970.03 474714.69 90099.55 716.00 2.00 3.00 0.00 0.00 1.00 0.00 0.00 0.00 0.00 -8.69 1.00 1220.00 360422721.60 0.00 
155970.20 474714.59 90099.83 635.00 2.00 3.00 0.00 0.00 1.00 0.00 0.00 0.00 0.00 -8.68 1.00 1220.00 360422721.60 0.00 
155970.48 474714.69 90101.96 586.00 1.00 3.00 0.00 0.00 1.00 0.00 0.00 0.00 0.00 -8.64 1.00 1220.00 360422721.60 0.00 
155970.98 474714.44 90102.21 772.00 1.00 2.00 0.00 0.00 1.00 0.00 0.00 0.00 0.00 -8.62 1.00 1220.00 360422721.60 0.00 
155971.59 474713.97 90101.49 626.00 1.00 2.00 0.00 0.00 1.00 0.00 0.00 0.00 0.00 -8.60 1.00 1220.00 360422721.60 0.00 
155971.33 474714.31 90102.91 509.00 1.00 3.00 0.00 0.00 1.00 0.00 0.00 0.00 0.00 -8.59 1.00 1220.00 360422721.60 0.00 
155971.59 474714.12 90102.95 847.00 1.00 3.00 0.00 0.00 1.00 0.00 0.00 0.00 0.00 -8.59 1.00 1220.00 360422721.60 0.00 
155962.62 474719.00 90092.73 389.00 1.00 2.00 0.00 0.00 1.00 0.00 0.00 0.00 0.00 -9.09 1.00 1220.00 360422721.61 0.00 
155962.67 474719.03 90093.24 318.00 2.00 3.00 0.00 0.00 1.00 0.00 0.00 0.00 0.00 -9.08 1.00 1220.00 360422721.61 0.00 
155962.17 474719.59 90095.44 524.00 2.00 4.00 0.00 0.00 1.00 0.00 0.00 0.00 0.00 -9.08 1.00 1220.00 360422721.61 0.00 
155962.53 474719.22 90094.30 805.00 3.00 4.00 0.00 0.00 1.00 0.00 0.00 0.00 0.00 -9.08 1.00 1220.00 360422721.61 0.00 
155962.38 474719.47 90095.55 970.00 1.00 2.00 0.00 0.00 1.00 0.00 0.00 0.00 0.00 -9.06 1.00 1220.00 360422721.61 0.00 
155962.33 474719.56 90096.36 637.00 1.00 3.00 0.00 0.00 1.00 0.00 0.00 0.00 0.00 -9.05 1.00 1220.00 360422721.61 0.00 
155963.22 474718.78 90094.03 547.00 2.00 3.00 0.00 0.00 1.00 0.00 0.00 0.00 0.00 -9.05 1.00 1220.00 360422721.61 0.00 
155962.70 474719.34 90096.22 606.00 1.00 2.00 0.00 0.00 1.00 0.00 0.00 0.00 0.00 -9.02 1.00 1220.00 360422721.61 0.00 
155963.14 474719.09 90096.65 675.00 1.00 2.00 0.00 0.00 1.00 0.00 0.00 0.00 0.00 -9.01 1.00 1220.00 360422721.61 0.00 
155963.09 474719.22 90097.46 811.00 1.00 2.00 0.00 0.00 1.00 0.00 0.00 0.00 0.00 -9.01 1.00 1220.00 360422721.61 0.00 
155963.31 474719.06 90097.44 854.00 1.00 2.00 0.00 0.00 1.00 0.00 0.00 0.00 0.00 -9.00 1.00 1220.00 360422721.61 0.00 
155963.69 474718.81 90097.20 460.00 1.00 2.00 0.00 0.00 1.00 0.00 0.00 0.00 0.00 -8.98 1.00 1220.00 360422721.61 0.00 
155964.08 474718.53 90096.97 1025.00 1.00 3.00 0.00 0.00 1.00 0.00 0.00 0.00 0.00 -8.97 1.00 1220.00 360422721.61 0.00 
155965.78 474717.03 90092.50 562.00 2.00 3.00 0.00 0.00 1.00 0.00 0.00 0.00 0.00 -8.97 1.00 1220.00 360422721.61 0.00 
155961.22 474721.22 90105.20 717.00 1.00 3.00 0.00 0.00 1.00 0.00 0.00 0.00 0.00 -8.96 1.00 1220.00 360422721.61 0.00 
155964.38 474718.38 90097.03 991.00 2.00 3.00 0.00 0.00 1.00 0.00 0.00 0.00 0.00 -8.96 1.00 1220.00 360422721.61 0.00 
155961.55 474721.00 90104.99 622.00 1.00 3.00 0.00 0.00 1.00 0.00 0.00 0.00 0.00 -8.95 1.00 1220.00 360422721.61 0.00 
155966.61 474716.44 90091.89 647.00 2.00 3.00 0.00 0.00 1.00 0.00 0.00 0.00 0.00 -8.95 1.00 1220.00 360422721.61 0.00 
155966.89 474716.28 90091.88 713.00 1.00 2.00 0.00 0.00 1.00 0.00 0.00 0.00 0.00 -8.93 1.00 1220.00 360422721.61 0.00 
155961.19 474721.47 90107.66 262.00 1.00 4.00 0.00 0.00 1.00 0.00 0.00 0.00 0.00 -8.93 1.00 1220.00 360422721.61 0.00 
155961.78 474721.03 90106.11 314.00 2.00 4.00 0.00 0.00 1.00 0.00 0.00 0.00 0.00 -8.93 1.00 1220.00 360422721.61 0.00 
155964.73 474718.31 90098.44 282.00 3.00 4.00 0.00 0.00 1.00 0.00 0.00 0.00 0.00 -8.93 1.00 1220.00 360422721.61 0.00 
155961.92 474720.97 90106.46 332.00 1.00 4.00 0.00 0.00 1.00 0.00 0.00 0.00 0.00 -8.92 1.00 1220.00 360422721.61 0.00 
155963.56 474719.41 90102.08 274.00 2.00 4.00 0.00 0.00 1.00 0.00 0.00 0.00 0.00 -8.92 1.00 1220.00 360422721.61 0.00 
155965.02 474718.12 90098.20 543.00 3.00 4.00 0.00 0.00 1.00 0.00 0.00 0.00 0.00 -8.92 1.00 1220.00 360422721.61 0.00 
155961.41 474721.44 90108.26 752.00 1.00 5.00 0.00 0.00 1.00 0.00 0.00 0.00 0.00 -8.90 1.00 1220.00 360422721.61 0.00 
155963.25 474719.75 90103.55 395.00 3.00 5.00 0.00 0.00 1.00 0.00 0.00 0.00 0.00 -8.90 1.00 1220.00 360422721.61 0.00 
155963.84 474719.22 90102.05 367.00 4.00 5.00 0.00 0.00 1.00 0.00 0.00 0.00 0.00 -8.90 1.00 1220.00 360422721.61 0.00 
155963.52 474719.62 90103.66 573.00 3.00 5.00 0.00 0.00 1.00 0.00 0.00 0.00 0.00 -8.88 1.00 1220.00 360422721.61 0.00 
155964.08 474719.09 90102.13 466.00 4.00 5.00 0.00 0.00 1.00 0.00 0.00 0.00 0.00 -8.88 1.00 1220.00 360422721.61 0.00 
155962.94 474720.28 90105.94 582.00 1.00 6.00 0.00 0.00 1.00 0.00 0.00 0.00 0.00 -8.88 1.00 1220.00 360422721.61 0.00 
155963.70 474719.50 90103.86 653.00 2.00 6.00 0.00 0.00 1.00 0.00 0.00 0.00 0.00 -8.88 1.00 1220.00 360422721.61 0.00 
155964.30 474718.97 90102.28 565.00 3.00 6.00 0.00 0.00 1.00 0.00 0.00 0.00 0.00 -8.88 1.00 1220.00 360422721.61 0.00 
155965.30 474718.12 90099.77 358.00 4.00 6.00 0.00 0.00 1.00 0.00 0.00 0.00 0.00 -8.88 1.00 1220.00 360422721.61 0.00 
155966.00 474717.44 90097.89 407.00 5.00 6.00 0.00 0.00 1.00 0.00 0.00 0.00 0.00 -8.88 1.00 1220.00 360422721.61 0.00 
155964.05 474719.31 90103.70 1041.00 1.00 4.00 0.00 0.00 1.00 0.00 0.00 0.00 0.00 -8.87 1.00 1220.00 360422721.61 0.00 
155964.55 474718.81 90102.38 586.00 2.00 4.00 0.00 0.00 1.00 0.00 0.00 0.00 0.00 -8.87 1.00 1220.00 360422721.61 0.00 
155965.52 474717.97 90099.91 596.00 3.00 4.00 0.00 0.00 1.00 0.00 0.00 0.00 0.00 -8.87 1.00 1220.00 360422721.61 0.00 
155963.39 474720.06 90106.29 501.00 1.00 4.00 0.00 0.00 1.00 0.00 0.00 0.00 0.00 -8.85 1.00 1220.00 360422721.61 0.00 
155964.20 474719.28 90104.10 750.00 2.00 4.00 0.00 0.00 1.00 0.00 0.00 0.00 0.00 -8.85 1.00 1220.00 360422721.61 0.00 
155965.78 474717.81 90099.99 486.00 3.00 4.00 0.00 0.00 1.00 0.00 0.00 0.00 0.00 -8.85 1.00 1220.00 360422721.61 0.00 
155963.45 474720.03 90106.91 631.00 1.00 5.00 0.00 0.00 1.00 0.00 0.00 0.00 0.00 -8.84 1.00 1220.00 360422721.61 0.00 
155964.27 474719.28 90104.59 420.00 2.00 5.00 0.00 0.00 1.00 0.00 0.00 0.00 0.00 -8.84 1.00 1220.00 360422721.61 0.00 
155965.16 474718.47 90102.38 291.00 3.00 5.00 0.00 0.00 1.00 0.00 0.00 0.00 0.00 -8.84 1.00 1220.00 360422721.61 0.00 
155966.05 474717.66 90100.05 572.00 4.00 5.00 0.00 0.00 1.00 0.00 0.00 0.00 0.00 -8.84 1.00 1220.00 360422721.61 0.00 
155963.66 474719.88 90106.95 277.00 1.00 4.00 0.00 0.00 1.00 0.00 0.00 0.00 0.00 -8.84 1.00 1220.00 360422721.61 0.00 
155966.23 474717.59 90100.24 666.00 2.00 4.00 0.00 0.00 1.00 0.00 0.00 0.00 0.00 -8.84 1.00 1220.00 360422721.61 0.00 
155966.78 474717.09 90098.94 1007.00 3.00 4.00 0.00 0.00 1.00 0.00 0.00 0.00 0.00 -8.84 1.00 1220.00 360422721.61 0.00 
155964.16 474719.53 90106.30 581.00 1.00 4.00 0.00 0.00 1.00 0.00 0.00 0.00 0.00 -8.83 1.00 1220.00 360422721.61 0.00 
155966.20 474717.72 90101.11 308.00 2.00 4.00 0.00 0.00 1.00 0.00 0.00 0.00 0.00 -8.83 1.00 1220.00 360422721.61 0.00 
155966.88 474717.09 90099.37 427.00 3.00 4.00 0.00 0.00 1.00 0.00 0.00 0.00 0.00 -8.83 1.00 1220.00 360422721.61 0.00 
155964.02 474719.72 90107.44 570.00 1.00 4.00 0.00 0.00 1.00 0.00 0.00 0.00 0.00 -8.81 1.00 1220.00 360422721.61 0.00 
155964.50 474719.28 90106.18 679.00 2.00 4.00 0.00 0.00 1.00 0.00 0.00 0.00 0.00 -8.81 1.00 1220.00 360422721.61 0.00 
155966.94 474717.12 90099.82 294.00 3.00 4.00 0.00 0.00 1.00 0.00 0.00 0.00 0.00 -8.81 1.00 1220.00 360422721.61 0.00 
155964.23 474719.59 90107.57 805.00 1.00 3.00 0.00 0.00 1.00 0.00 0.00 0.00 0.00 -8.80 1.00 1220.00 360422721.61 0.00 
155964.78 474719.12 90106.18 521.00 2.00 3.00 0.00 0.00 1.00 0.00 0.00 0.00 0.00 -8.80 1.00 1220.00 360422721.61 0.00 
155964.23 474719.69 90108.29 867.00 1.00 3.00 0.00 0.00 1.00 0.00 0.00 0.00 0.00 -8.78 1.00 1220.00 360422721.61 0.00 
155964.56 474719.38 90107.42 678.00 2.00 3.00 0.00 0.00 1.00 0.00 0.00 0.00 0.00 -8.78 1.00 1220.00 360422721.61 0.00 
155964.69 474719.34 90107.92 589.00 1.00 5.00 0.00 0.00 1.00 0.00 0.00 0.00 0.00 -8.77 1.00 1220.00 360422721.61 0.00 
155965.92 474718.31 90104.66 518.00 2.00 5.00 0.00 0.00 1.00 0.00 0.00 0.00 0.00 -8.77 1.00 1220.00 360422721.61 0.00 
155967.27 474717.06 90101.26 622.00 3.00 5.00 0.00 0.00 1.00 0.00 0.00 0.00 0.00 -8.77 1.00 1220.00 360422721.61 0.00 
155964.52 474719.59 90109.12 418.00 1.00 7.00 0.00 0.00 1.00 0.00 0.00 0.00 0.00 -8.76 1.00 1220.00 360422721.61 0.00 
155964.89 474719.28 90108.04 394.00 2.00 7.00 0.00 0.00 1.00 0.00 0.00 0.00 0.00 -8.76 1.00 1220.00 360422721.61 0.00 
155966.30 474718.00 90104.41 561.00 3.00 7.00 0.00 0.00 1.00 0.00 0.00 0.00 0.00 -8.76 1.00 1220.00 360422721.61 0.00 
155967.38 474717.12 90101.87 537.00 4.00 7.00 0.00 0.00 1.00 0.00 0.00 0.00 0.00 -8.76 1.00 1220.00 360422721.61 0.00 
155964.72 474719.50 90109.16 572.00 1.00 5.00 0.00 0.00 1.00 0.00 0.00 0.00 0.00 -8.76 1.00 1220.00 360422721.61 0.00 
155965.72 474718.62 90106.77 878.00 2.00 5.00 0.00 0.00 1.00 0.00 0.00 0.00 0.00 -8.76 1.00 1220.00 360422721.61 0.00 
155967.19 474717.28 90102.93 297.00 3.00 5.00 0.00 0.00 1.00 0.00 0.00 0.00 0.00 -8.76 1.00 1220.00 360422721.61 0.00 
155967.72 474716.84 90101.62 356.00 4.00 5.00 0.00 0.00 1.00 0.00 0.00 0.00 0.00 -8.76 1.00 1220.00 360422721.61 0.00 
155964.81 474719.53 90109.69 641.00 1.00 6.00 0.00 0.00 1.00 0.00 0.00 0.00 0.00 -8.75 1.00 1220.00 360422721.61 0.00 
155965.84 474718.53 90107.00 289.00 2.00 6.00 0.00 0.00 1.00 0.00 0.00 0.00 0.00 -8.75 1.00 1220.00 360422721.61 0.00 
155967.42 474717.16 90103.06 334.00 3.00 6.00 0.00 0.00 1.00 0.00 0.00 0.00 0.00 -8.75 1.00 1220.00 360422721.61 0.00 
155967.88 474716.81 90101.90 494.00 4.00 6.00 0.00 0.00 1.00 0.00 0.00 0.00 0.00 -8.75 1.00 1220.00 360422721.61 0.00 
155968.27 474716.44 90101.02 573.00 5.00 6.00 0.00 0.00 1.00 0.00 0.00 0.00 0.00 -8.75 1.00 1220.00 360422721.61 0.00 
155965.98 474718.50 90107.35 466.00 1.00 2.00 0.00 0.00 1.00 0.00 0.00 0.00 0.00 -8.74 1.00 1220.00 360422721.61 0.00 
155969.62 474715.44 90099.52 589.00 1.00 2.00 0.00 0.00 1.00 0.00 0.00 0.00 0.00 -8.71 1.00 1220.00 360422721.61 0.00 
155967.38 474717.59 90106.14 496.00 1.00 3.00 0.00 0.00 1.00 0.00 0.00 0.00 0.00 -8.69 1.00 1220.00 360422721.61 0.00 
155969.73 474715.50 90100.09 425.00 2.00 3.00 0.00 0.00 1.00 0.00 0.00 0.00 0.00 -8.69 1.00 1220.00 360422721.61 0.00 
155967.67 474717.34 90105.96 827.00 1.00 3.00 0.00 0.00 1.00 0.00 0.00 0.00 0.00 -8.69 1.00 1220.00 360422721.61 0.00 
155969.66 474715.56 90100.94 567.00 2.00 3.00 0.00 0.00 1.00 0.00 0.00 0.00 0.00 -8.69 1.00 1220.00 360422721.61 0.00 
155968.00 474717.12 90105.85 593.00 1.00 5.00 0.00 0.00 1.00 0.00 0.00 0.00 0.00 -8.68 1.00 1220.00 360422721.61 0.00 
155969.83 474715.50 90101.20 637.00 2.00 5.00 0.00 0.00 1.00 0.00 0.00 0.00 0.00 -8.68 1.00 1220.00 360422721.61 0.00 
155970.45 474714.94 90099.64 507.00 3.00 5.00 0.00 0.00 1.00 0.00 0.00 0.00 0.00 -8.68 1.00 1220.00 360422721.61 0.00 
155971.25 474714.19 90097.55 521.00 4.00 5.00 0.00 0.00 1.00 0.00 0.00 0.00 0.00 -8.68 1.00 1220.00 360422721.61 0.00 
155969.61 474715.81 90102.66 289.00 1.00 5.00 0.00 0.00 1.00 0.00 0.00 0.00 0.00 -8.66 1.00 1220.00 360422721.61 0.00 
155970.03 474715.41 90101.44 1129.00 2.00 5.00 0.00 0.00 1.00 0.00 0.00 0.00 0.00 -8.66 1.00 1220.00 360422721.61 0.00 
155970.72 474714.78 90099.66 413.00 3.00 5.00 0.00 0.00 1.00 0.00 0.00 0.00 0.00 -8.66 1.00 1220.00 360422721.61 0.00 
155971.44 474714.22 90097.95 458.00 4.00 5.00 0.00 0.00 1.00 0.00 0.00 0.00 0.00 -8.66 1.00 1220.00 360422721.61 0.00 
155971.72 474713.91 90097.81 350.00 1.00 2.00 0.00 0.00 1.00 0.00 0.00 0.00 0.00 -8.65 1.00 1220.00 360422721.61 0.00 
155969.89 474715.75 90103.35 517.00 1.00 4.00 0.00 0.00 1.00 0.00 0.00 0.00 0.00 -8.64 1.00 1220.00 360422721.61 0.00 
155970.48 474715.19 90101.83 375.00 2.00 4.00 0.00 0.00 1.00 0.00 0.00 0.00 0.00 -8.64 1.00 1220.00 360422721.61 0.00 
155971.89 474713.97 90098.21 594.00 3.00 4.00 0.00 0.00 1.00 0.00 0.00 0.00 0.00 -8.64 1.00 1220.00 360422721.61 0.00 
155969.98 474715.72 90103.77 320.00 1.00 4.00 0.00 0.00 1.00 0.00 0.00 0.00 0.00 -8.63 1.00 1220.00 360422721.61 0.00 
